NCOLS 197
NROWS 28
XLLCORNER -118.687499668
YLLCORNER 42.3625003329
CELLSIZE 0.0666666666645545 
NODATA_value -3.4e+38 
1608.7054901123 1680.4482460022 1767.36725997925 1900.08238601685 1626.26733970642 1685.09232330322 1551.32525634766 1506.39839935303 1611.40526199341 1570.98006248474 1539.85656356812 1319.45345497131 1349.71925354004 1554.32207679749 1547.27136230469 1409.35244750977 1142.34738063812 886.644500732422 800.10070514679 841.642623901367 850.243789672852 870.296970367432 874.753367424011 832.178846359253 768.831107139587 672.293076515198 654.549946784973 717.26935005188 789.362822532654 839.2108335495 996.683084487915 1040.00407409668 1143.16584396362 1370.09597969055 1293.66627883911 1115.26445007324 1204.12136173248 1546.92435455322 1560.42219924927 1827.72061347961 1260.96726512909 1181.67832565308 1556.02603721619 2114.9628944397 2058.60614776611 1743.89279937744 2054.3537273407 1979.32223892212 2168.32438659668 2034.11661720276 1948.24551391602 1920.59579277039 2189.34654998779 2408.55478668213 2448.32229614258 2118.15166854858 2043.81002998352 2387.81339263916 2603.88844299316 2403.25877571106 2532.56083297729 2303.56531715393 2378.54044723511 2314.84492492676 2314.90403747559 2114.74311447144 2001.60533332825 2094.28484916687 2299.35510635376 2472.69203186035 2305.06290626526 2105.88598251343 2505.40142440796 2905.68841934204 2432.51277923584 2390.00054168701 2376.48997497559 2414.14989852905 2210.26616287231 1994.33135223389 1888.53798675537 1978.28155136108 2540.16953659058 2836.38600158691 2543.23290634155 2048.78672790527 2048.16653251648 2542.70362091064 2467.32776260376 2027.06404876709 1800.40027046204 1771.60187721252 1702.16739845276 1608.11324501038 1580.15767478943 1576.99001121521 1587.49004364014 1610.87404632568 1646.28547096252 1708.16718101501 1738.08037948608 1780.70878601074 1793.85893630981 1793.94856452942 1756.86896324158 1716.68254470825 1750.11434173584 1875.65461921692 1894.18134117126 1867.09034729004 1820.62968444824 1837.54260635376 2017.18659973145 2034.64474105835 1981.83558082581 1991.13704681396 2241.58212852478 2286.7655620575 2477.37371444702 2420.06579208374 2327.63539505005 2383.56316757202 2344.11753082275 2404.41083526611 2616.37446212769 2627.45910644531 2718.46908950806 2866.85424041748 2505.8868598938 2875.05326461792 2989.18240737915 2814.96844100952 2953.22331619263 3009.92526626587 2944.14413070679 2897.02291870117 2340.85407447815 2322.05230331421 2942.16370773315 3233.18405532837 2974.21608734131 2864.55337524414 2432.59423065186 2176.17632865906 2042.15320587158 1945.26903533936 1849.91166496277 1780.88288116455 1830.86815452576 1664.25696372986 1559.41591835022 1513.75569915771 1469.95240211487 1438.49779891968 1395.74944496155 1378.77935218811 1401.64432525635 1395.04533576965 1367.38840484619 1302.6604385376 1270.48205947876 1215.35133934021 1278.62916374207 1317.29689598083 1300.75666236877 1371.20344734192 1427.92043304443 1515.85954093933 1666.25818252563 2096.2487487793 2467.0249710083 2656.58993148804 2799.45840072632 3003.46366500854 3054.79759216309 2674.35066604614 2484.11558151245 2189.71183395386 1684.53481483459 1556.60155296326 1493.90073394775 1439.66829299927 1375.26731872559 1339.73763847351 1377.05022621155 1409.33745384216 1354.9670715332 1290.83240509033 1238.74888801575 1293.57608222961 1318.58969116211 1368.59627914429 1404.90598487854 1470.6514339447 1469.3032283783 1472.06419754028 1464.30031013489
1648.01135444641 1582.47864151001 1780.86103248596 1679.78709602356 1576.26435279846 1480.91200637817 1518.12133979797 1530.67858123779 1608.33408737183 1518.69992828369 1386.7411403656 1245.82508468628 1235.97762489319 1315.9877910614 1379.69681167603 1604.91920661926 1477.55571746826 1070.93010425568 834.632601737976 758.7819480896 744.27260684967 771.10157585144 818.06743812561 858.669864654541 795.205763816833 709.712850570679 657.762523651123 781.815816879272 860.948787689209 876.09351348877 830.248345375061 908.267980575562 1085.14890861511 1224.50687789917 1248.11103248596 999.427238464355 1188.55681228638 1635.11086845398 1428.50052070618 1674.09243965149 1096.9489812851 1230.60124206543 1485.54597854614 1711.39625740051 1860.89780044556 1566.8100605011 1649.08475112915 1950.01934623718 1734.47902107239 1652.26637649536 1790.27901268005 2160.25726699829 2004.70289802551 2016.70833969116 2520.68312644958 2557.16345596313 2110.05890464783 2200.69558906555 2585.86784362793 2444.41718673706 2831.99820709229 2885.52179336548 2551.97500610352 2248.16707229614 2109.29997062683 2108.35638427734 2116.48682594299 2252.78468894958 2426.20220565796 2436.28232574463 2161.91868972778 1932.83248710632 2143.44029998779 3060.69248580933 2713.92741012573 2836.81739044189 2626.91304397583 2454.48600769043 2170.34497070312 2057.77680587769 2083.59724807739 1816.03985214233 2162.90674972534 2722.86489105225 2734.39755249023 2177.6963596344 1900.23036766052 2054.59152984619 2353.55708122253 2026.26762771606 1668.09506607056 1605.0610332489 1515.7384185791 1498.4769821167 1524.26204109192 1519.08233070374 1523.78838157654 1546.70561027527 1584.2149887085 1639.95038032532 1677.01475524902 1701.66548728943 1701.76727485657 1683.82651901245 1678.46842002869 1646.10487174988 1649.55780601501 1686.21592712402 1696.36327362061 1738.53211402893 1751.16994094849 1749.02411842346 1818.38212394714 1919.21921920776 1939.60146713257 1955.20866012573 2062.60127639771 2247.05570602417 2298.02718353271 2201.00645828247 2244.23085403442 2612.8406867981 2340.49439239502 2466.35910415649 2785.75347518921 2621.56221008301 2719.38115310669 2836.0325050354 2506.7809715271 2632.84581756592 2679.78764343262 2726.31154251099 2777.25593566895 3039.68383789062 2913.6776008606 2526.94316864014 2580.27134895325 2895.86695480347 3085.38294219971 2833.47426223755 2507.8427696228 2298.03211975098 2165.18159484863 2078.14407348633 1991.36331748962 1915.94006919861 1878.56536483765 1879.48547554016 1844.85078811646 1701.82030677795 1670.08382415771 1662.12120628357 1611.0382232666 1478.61638641357 1415.94353294373 1376.7931804657 1351.62895774841 1333.04417228699 1341.15175628662 1314.33856391907 1290.15066719055 1223.72819328308 1322.45302009583 1337.73148155212 1358.65484428406 1339.80571937561 1353.46218490601 1376.66569709778 1513.32566642761 1792.00888061523 2198.35391426086 2392.59016036987 2661.66484069824 2750.978515625 2843.63014602661 2555.5545425415 2411.74559402466 2232.40684700012 1662.15891075134 1505.5871219635 1480.87242126465 1420.33683204651 1375.32590103149 1368.73921012878 1405.08186149597 1388.2352180481 1349.57522964478 1296.43353462219 1267.5929775238 1338.95883369446 1386.9930267334 1391.22626304626 1397.07926368713 1451.72155380249 1510.39478874207 1475.9809627533 1445.6691608429
1674.34405899048 1632.23138046265 1692.72302246094 1785.80351829529 1685.93005943298 1452.17127609253 1399.20770645142 1616.20978927612 1448.62647819519 1314.84570121765 1292.51069831848 1174.62307167053 1127.55891036987 1097.52752113342 1110.17045879364 1206.26090621948 1211.36573600769 1048.21950912476 918.348126411438 815.190647125244 762.529759407043 748.730218887329 867.542517662048 821.47323513031 732.31228351593 668.902083396912 667.251708030701 743.172485351562 755.921950340271 762.048892974854 813.933471679688 825.476987838745 884.472754478455 1177.15377616882 1339.80443191528 1000.23959922791 1221.35147285461 1393.78022003174 1248.44843482971 1481.08222389221 1334.61219787598 1140.93867397308 1272.63071250916 1438.26712608337 1607.89099121094 1496.38445663452 1550.98655319214 1611.44465446472 1905.603307724 2082.51092147827 2108.88071250916 2285.78094482422 2246.8989200592 2211.13236808777 2621.21985626221 2635.08098602295 2371.72006607056 2089.1402130127 2331.29229736328 2585.76654815674 2805.71178436279 2972.60810470581 2624.25658416748 2248.39597511292 2733.95383834839 2518.51705551147 2218.55309677124 2442.30265808105 2726.38910675049 2340.60091400146 2042.23287773132 1959.78934288025 1942.84445571899 2468.41517448425 2908.13895797729 3037.94800567627 2931.19940185547 2777.89250183105 2282.67818832397 2292.18560409546 2148.00717544556 1821.01052093506 1868.21781921387 2446.12474250793 2765.20886611938 2441.85610961914 1910.16694068909 1733.3347530365 1794.81495857239 1829.67204666138 1552.22734069824 1489.63643074036 1472.0729675293 1481.61078834534 1526.54443740845 1517.63907432556 1496.25053787231 1495.04614257812 1536.16640090942 1589.11084747314 1667.01701545715 1689.67183685303 1652.73720550537 1586.1127986908 1599.50094032288 1580.23429489136 1567.88652992249 1576.5363445282 1602.7116394043 1643.30629348755 1701.631690979 1737.20027351379 1795.25280761719 1883.40515136719 1942.92474555969 1991.78172492981 2239.44769287109 2494.16044616699 2492.88194274902 2183.62812805176 2327.89358139038 2638.18469238281 2550.32670211792 2572.42138290405 2600.73642730713 2665.24678039551 2690.79043960571 2826.04003143311 2661.42795562744 2723.25257492065 2900.90240859985 2969.43641662598 2947.81818008423 2998.00323104858 3222.31605148315 2695.38673400879 3109.95966720581 3218.37474060059 2858.59233093262 2845.56513214111 2933.10677337646 2532.57764434814 2274.26906585693 2103.49000930786 2024.04359436035 1974.94815444946 2021.77025413513 1925.42643737793 1804.20785522461 1750.1130657196 1750.42366790771 1680.55066299438 1640.71537017822 1553.78170585632 1443.70672988892 1394.51081466675 1361.80523872375 1338.97596740723 1305.13928031921 1304.55610656738 1285.88233566284 1238.77717208862 1345.78385162354 1343.59762382507 1405.3189907074 1382.38133430481 1430.32063865662 1374.70672798157 1400.30222320557 1521.81687736511 1845.7407207489 2235.65405464172 2406.88814544678 2580.77313995361 2686.01468658447 2527.05535507202 2377.13284683228 2189.22228622437 1645.66999435425 1493.15207099915 1427.81306838989 1407.2933883667 1389.25312805176 1416.46656036377 1404.14309501648 1366.59820365906 1335.92706489563 1282.0031452179 1326.27120780945 1359.96670532227 1373.047914505 1401.36127090454 1439.46737861633 1485.48467254639 1513.02190208435 1475.54992866516 1448.6603012085
1408.35044288635 1542.90832901001 1506.27105712891 1632.5314617157 1703.87323760986 1434.33400726318 1255.62632751465 1368.23702049255 1285.15273857117 1390.85246276855 1422.21828460693 1270.40926170349 1099.29895019531 1020.6739397049 949.598260879517 957.053757667542 982.351343154907 924.178868293762 858.101863861084 778.13601398468 774.262866020203 713.917723655701 719.857518196106 697.970081329346 683.520343780518 661.794038772583 672.337091445923 677.739805221558 698.05931186676 752.288019180298 805.306847572327 853.737822532654 885.904056549072 1131.03662395477 1218.51620578766 874.546948432922 1136.37497425079 1069.75920963287 1313.09494876862 1812.11200904846 1592.24899482727 1443.85859870911 1477.10585021973 1869.29182434082 2142.75993919373 1892.66524505615 1759.38403892517 1819.46253395081 1939.23081207275 2220.21297836304 2331.10476303101 2042.49697685242 2291.17497825623 2590.09342575073 2508.96660995483 2728.56565475464 2473.91528701782 2142.88808059692 2256.58436965942 2679.79217529297 2768.46663665771 2677.19825744629 2469.6851234436 2441.4947013855 2740.71136474609 2677.56448364258 2585.79512405396 2612.08162307739 2424.65374755859 2207.58113479614 2181.13196754456 2244.95617103577 1967.78791999817 1896.40148544312 2018.75471878052 2294.15095901489 2794.00389099121 2929.07897949219 2344.81185913086 2602.68355178833 2434.47408485413 1873.79818534851 1665.12091445923 1793.23987007141 2210.56268501282 2725.21978759766 2102.57659721375 1682.34292793274 1609.12778091431 1551.19959259033 1487.37635040283 1462.96070480347 1462.66363525391 1468.28385734558 1502.47034454346 1520.60039520264 1472.54168510437 1478.19605064392 1501.61023521423 1539.49705696106 1590.30737495422 1632.076795578 1610.52182388306 1516.39515304565 1520.06241226196 1530.36866378784 1542.95602798462 1588.71196174622 1639.81293296814 1679.11925697327 1722.68925476074 1770.20509719849 1832.07047843933 1918.33648490906 2030.96532440186 2079.5809841156 2334.61293411255 2667.21223068237 2572.32133102417 2236.75617980957 2168.26320266724 2431.63484191895 2476.40846633911 2614.51070785522 2379.76474380493 2443.36225891113 2497.49780654907 2602.80421829224 2820.93883514404 3031.47973251343 2905.54426956177 3083.38592147827 3190.55029678345 3096.23969268799 2852.22431182861 2896.46166610718 3126.96612167358 3317.69148635864 3063.50853729248 2997.78824234009 3275.39307785034 3001.75350189209 2762.19799804688 2403.73147583008 2134.70829772949 2097.79274559021 2062.91986656189 1977.21777153015 1881.78539085388 1798.45087432861 1711.07853507996 1648.89834403992 1609.14385032654 1562.5301361084 1512.73260116577 1469.64436531067 1428.61632728577 1381.35383605957 1359.45248985291 1332.79167556763 1256.22420501709 1275.15051460266 1320.49031829834 1372.45843696594 1413.16243553162 1437.47492218018 1441.96127128601 1443.91449356079 1421.33051109314 1431.86111068726 1565.93584632874 1839.32042694092 2199.20070838928 2438.42824172974 2495.8641242981 2427.02908325195 2350.58873748779 2230.88472175598 1639.09501266479 1507.05102348328 1456.24188995361 1486.42371559143 1421.87903594971 1434.53403663635 1417.72575950623 1400.3856754303 1373.3644695282 1299.62890052795 1330.81815910339 1361.33339881897 1401.12299156189 1440.05684661865 1462.49433708191 1498.29854202271 1541.29925346375 1500.17021751404 1485.19490242004
1301.38035011292 1256.02624702454 1344.18258285522 1506.0899181366 1446.36838912964 1284.4726524353 1412.65326118469 1219.95388507843 1189.10941791534 1452.20082855225 1564.98810577393 1397.77062225342 1184.13145256042 1134.53729629517 992.258767127991 915.670637130737 966.326596260071 877.884036064148 810.733631134033 738.429436683655 712.075743675232 737.784446716309 837.23904800415 816.347517967224 746.773369789124 664.789757728577 713.531516075134 749.830547332764 717.979716300964 698.941954612732 728.533590316772 772.961954116821 820.500946998596 843.358542442322 866.290936470032 833.686499595642 1045.22731399536 953.000619888306 1327.75703239441 1773.76878929138 1481.23578453064 1353.98156547546 1456.11256790161 1759.18011665344 1979.23291778564 1930.71213531494 1741.14681625366 1751.46094512939 1651.79750061035 1927.19115829468 2049.46627807617 2072.24626159668 2312.55025863647 2526.77913284302 2594.54525756836 2684.5067024231 2626.00044631958 2244.64655685425 2229.04690933228 2559.93646621704 2751.45780563354 2761.33184432983 2743.28738021851 2790.6837348938 2903.69215393066 2667.88520812988 2622.98666763306 2431.35190963745 2259.46827697754 2487.21396255493 2519.90069961548 2563.35376358032 2411.8210144043 2247.0089302063 2212.67024040222 1995.68528747559 1926.6486492157 2182.93654251099 2063.47150611877 2261.23678970337 2781.12305831909 2125.00778388977 1671.4336681366 1630.88021850586 1845.48895263672 2441.31347465515 2323.88942146301 1678.51816177368 1536.00522613525 1498.61853027344 1469.80898666382 1460.1641998291 1458.45293998718 1461.59692192078 1475.44915390015 1470.14653778076 1460.82013893127 1471.42266654968 1482.01797103882 1493.59823226929 1497.13786315918 1486.0335483551 1484.99090194702 1488.81891441345 1500.85029602051 1515.23698043823 1555.02118492126 1637.3312702179 1687.90688705444 1723.79578590393 1779.82939338684 1807.93637084961 1845.83061408997 1937.81879806519 2137.68752288818 2254.04065322876 2491.9391746521 2776.73066329956 2895.85586929321 2430.53174591064 2076.91805267334 2196.59035491943 2264.72058105469 2282.36924743652 2475.38572311401 2530.01159286499 2543.56034088135 2533.02965927124 2773.93396377563 2901.07878494263 2972.04882049561 3045.17557907104 3125.89002227783 2781.11857223511 2766.80349731445 3016.56853485107 3294.15203094482 3221.80702972412 3329.28957748413 3204.6679649353 3418.64227294922 3126.56641769409 2684.49281692505 2427.2371673584 2388.43236160278 2262.15370559692 2212.02410507202 2081.54585266113 1985.50172424316 1907.96858787537 1764.45701217651 1689.00291442871 1627.49426841736 1616.28322029114 1632.93252563477 1561.31841087341 1456.51807975769 1361.06753730774 1320.22895050049 1287.92059516907 1281.17478942871 1314.46339416504 1332.57265853882 1349.2974281311 1369.23041343689 1401.90920829773 1472.91609573364 1502.9301700592 1452.87189483643 1427.20441818237 1500.01796531677 1708.76607704163 2150.07000541687 2399.14776611328 2465.51470184326 2423.81803131104 2134.51268386841 2183.85766983032 1705.83366394043 1548.27330780029 1538.71519470215 1533.22877120972 1458.6752986908 1427.93778991699 1395.89974403381 1373.18824386597 1357.8516330719 1319.16278457642 1346.22990036011 1427.81908416748 1433.01857566833 1438.41891098022 1472.01442527771 1532.84218788147 1514.30474662781 1493.7819519043 1477.85234069824
1333.21183586121 1174.81136894226 1214.71494674683 1242.42234230042 1284.27667999268 1127.9625377655 1218.45502090454 1163.65757274628 1359.41556930542 1506.34572029114 1497.66693305969 1542.18060302734 1391.22262191772 1256.49521064758 1079.91300487518 825.472997665405 792.169069290161 842.961020469666 844.605990409851 783.686784744263 809.914939880371 840.301630020142 837.88102722168 776.714457511902 702.88807964325 677.073823928833 743.768452644348 796.270944595337 780.690679550171 774.452670097351 755.419571876526 728.262364387512 727.077813148499 830.210263252258 997.45370388031 1239.22457885742 1222.12387275696 1115.71531867981 1378.08523178101 1633.06323432922 1558.71422576904 1369.40130615234 1413.10883712769 1410.23293495178 1617.5918674469 1852.20573806763 1744.795545578 1597.77558517456 1786.38423347473 1812.27830314636 2001.97011375427 1954.08374786377 2004.57008361816 2279.35162734985 2308.42395973206 2585.74415969849 2560.85673141479 2587.6142616272 2387.36083984375 2596.65986633301 2391.81394958496 2810.53330993652 2973.89775848389 2593.93581008911 2751.5231628418 2792.50029373169 2715.05931472778 2494.16348648071 2557.29231262207 2577.79641342163 2624.8663482666 2394.47979354858 2491.02032089233 2765.13933563232 2899.87442016602 2289.53412055969 1923.31908607483 1803.10701370239 1763.65730857849 1843.07100486755 2553.30280685425 2294.1543712616 1784.84100532532 1591.56651878357 1533.05497360229 1629.36264419556 1767.079454422 1657.00061798096 1485.48331451416 1462.39766120911 1470.67594528198 1461.30116844177 1457.19920539856 1458.46878623962 1458.06647872925 1459.86711502075 1482.93884277344 1479.48690032959 1481.84579849243 1519.22462081909 1499.59359741211 1479.22279548645 1474.4056892395 1484.69479751587 1500.4588508606 1530.4981098175 1602.76703262329 1710.03719711304 1748.09344100952 1839.08584785461 1909.40161514282 1849.23040008545 1843.2527961731 1923.92565536499 2074.62035369873 2275.22731018066 2531.99822998047 2857.57418823242 2751.20482635498 2142.20181655884 2068.86341094971 2100.2880821228 2111.20050430298 2169.12337875366 2284.38421630859 2319.07781600952 2302.04726409912 2484.24296569824 2653.19680023193 2639.70026016235 2872.66351318359 3063.19890975952 3139.08536911011 2903.03971862793 3148.73735809326 3202.81021881104 3048.01190567017 2881.1420135498 3216.33533096313 3364.34527206421 3293.45945739746 3191.55326461792 2763.52638244629 2687.90055465698 2743.24052429199 2483.55813217163 2296.10501861572 2140.28024291992 2039.76726913452 1901.4558391571 1784.66548919678 1692.02450942993 1626.6990146637 1526.0272808075 1474.80480575562 1464.9137840271 1437.32268333435 1336.62252807617 1353.24107933044 1391.19843673706 1358.35310173035 1326.13661193848 1372.7076587677 1392.78727722168 1399.20924949646 1410.27139854431 1476.96940803528 1519.5791759491 1491.10828590393 1454.47860336304 1514.16024208069 1754.82701301575 2094.77296447754 2380.26202011108 2427.4454574585 2388.51964950562 2247.26393127441 1748.34764289856 1674.76797103882 1640.91834449768 1589.05222320557 1521.23201370239 1457.39928436279 1428.93025398254 1407.64567184448 1379.68604469299 1344.15866851807 1317.82855987549 1371.40245437622 1400.20411682129 1481.55942344666 1496.85914230347 1524.27404975891 1538.10976600647 1525.26569747925 1493.34098243713 1485.67548370361
1439.44033813477 1261.93620491028 1290.35305976868 1145.75435066223 1149.42812347412 1141.33656692505 1251.05558013916 1163.91676616669 1144.80800533295 1188.1621131897 1064.21576309204 1029.58758068085 1104.75194168091 1063.90813827515 974.266750335693 895.212862014771 912.641134262085 1072.86621189117 927.88240814209 874.887977600098 1034.37582015991 954.295157432556 808.578293800354 700.535690307617 676.480237960815 676.826419830322 710.93016910553 759.717281341553 758.321319580078 757.110716819763 782.479362487793 814.588683128357 854.210470199585 872.957490921021 919.802051544189 1067.041639328 1162.13663196564 1383.42011833191 1610.39848136902 1671.65919685364 1365.09847831726 1466.64490890503 1415.02333259583 1490.36520767212 1753.84393692017 1656.39417648315 1531.29684066772 1439.81060028076 1551.90575218201 1631.39601135254 1891.72856330872 1954.5624961853 1965.17336463928 1912.57702827454 2382.40724372864 2373.66441726685 2357.12257766724 2615.79718017578 2604.10413360596 2656.44228744507 2585.74077224731 2291.52910614014 2301.10507011414 2228.54507827759 2254.73752975464 2557.70372009277 2477.9422416687 2833.56104660034 2848.18737411499 2995.47398376465 3007.37379837036 2459.93166732788 2533.62056350708 2631.92092132568 2523.87888717651 2357.58916854858 2293.40940093994 2128.25855636597 1804.97428131104 1716.20470428467 1957.95123100281 2562.13985443115 1912.68001747131 2107.6196346283 1639.92101669312 1476.18529319763 1461.85063171387 1479.97255325317 1460.0819606781 1460.93389511108 1459.41646385193 1458.06678962708 1459.41426849365 1465.69721794128 1462.72098350525 1464.61392593384 1474.93886375427 1461.47498703003 1463.85724258423 1473.41491127014 1490.42625999451 1470.19985198975 1474.8555431366 1525.85074806213 1586.27419662476 1614.7670917511 1708.9453868866 1841.72689247131 1864.95028686523 2143.56615829468 2141.35792541504 1846.07450485229 1829.86531829834 1878.45945167542 1955.00279426575 2200.30742263794 2596.61795806885 2912.09381484985 2797.86871337891 2160.03709411621 2093.51455307007 2065.79329109192 2116.2265663147 2192.20757293701 2291.10580825806 2398.79970169067 2559.82949066162 2782.16848754883 2907.44525146484 2957.56693267822 2930.20065307617 2966.74440765381 3020.76172637939 3036.56332397461 3131.6374130249 3098.54401779175 2863.23780822754 2668.90277481079 3074.07751846313 3148.49521255493 3138.57439804077 3209.28146743774 3098.54859542847 3130.30236816406 2866.41156768799 2586.17818069458 2303.70449829102 2134.21125984192 1991.15481948853 1833.13505935669 1714.31697273254 1659.49457550049 1600.24837684631 1542.44867324829 1495.09474563599 1427.66528892517 1371.64821243286 1323.35950469971 1435.12621116638 1428.41931915283 1440.16401100159 1385.17539215088 1365.9414024353 1396.12471961975 1443.81488418579 1498.26998710632 1567.2092628479 1514.78739929199 1488.71990203857 1467.59524536133 1510.60390090942 1778.28643798828 2105.14856147766 2368.81103897095 2326.94415283203 2178.06504631042 2077.81225204468 1866.50944137573 1621.9005317688 1554.81536483765 1513.78717041016 1507.36815643311 1494.46362686157 1448.10251808167 1417.51566886902 1386.73701286316 1328.65842247009 1352.20369148254 1412.52238464355 1448.48156166077 1520.80563163757 1583.71677207947 1581.51260375977 1546.82715606689 1522.30767822266 1509.92422294617 1537.02163505554
1450.26300239563 1368.48525238037 1337.54964828491 1131.03930282593 1217.61985015869 1164.3479385376 1306.58227539062 1273.11171150208 995.563009262085 1089.25510978699 1239.11948776245 1353.18152427673 1468.31763648987 1251.58390426636 1000.3302116394 1080.00527000427 1134.59122180939 1265.69226646423 1088.38537979126 1017.47118663788 1042.26399517059 953.612065315247 808.061935424805 788.438241958618 686.586586952209 702.188715934753 710.93782043457 700.281834602356 712.918477058411 734.832607269287 743.501207351685 756.042536735535 779.568552017212 798.438117980957 813.33145904541 859.100468635559 961.049550056458 1279.93821525574 1628.26210212708 1645.95409584045 1253.87354469299 1220.83413696289 1471.12596511841 1814.35124588013 1783.49861526489 1428.0777759552 1484.70623016357 1790.97281074524 1825.26362991333 2015.2684879303 2154.62224960327 2132.88175582886 2305.13132858276 2275.70049476624 2544.63565826416 2590.125 2179.83183670044 2503.61286354065 2353.43686294556 2378.27656555176 2678.83711242676 2483.7377281189 2489.95417022705 2262.12161064148 1979.38133811951 2121.82918167114 2376.87172698975 2604.30218887329 2950.93801879883 2849.08386230469 2647.57743453979 2628.08100128174 2922.59160232544 2851.77667999268 2279.34636688232 2109.56387901306 2118.28335380554 1968.07346725464 2132.73381614685 1751.52619934082 1864.90460586548 2099.23057174683 2007.86333084106 2309.70407295227 1785.11744499207 1475.35791969299 1465.19602775574 1464.11771583557 1462.16115760803 1463.09085083008 1466.07578849792 1483.99984359741 1486.61360931396 1505.46826171875 1515.54804039001 1496.37097549438 1475.00655555725 1458.11507987976 1454.98436927795 1456.81213378906 1468.34482002258 1474.5662689209 1484.8519744873 1512.36115646362 1619.51077270508 1700.82613563538 1856.37096786499 1915.22080230713 1985.73792076111 2294.63182449341 2230.68223381042 1943.12432289124 1833.24402809143 1857.40265274048 1950.37947845459 2404.54816627502 2640.81871795654 2963.75665664673 2852.00481414795 2082.02977561951 2052.47436714172 2237.95549201965 2506.00717926025 2573.25506973267 2705.41690063477 2564.76156616211 2776.17848587036 2828.57006454468 2863.33531951904 2881.28840637207 2767.98701477051 2848.01015472412 2529.23024368286 2699.06534957886 3056.10147476196 2712.84861373901 2643.34457778931 2741.71397781372 2791.67776870728 2967.84717559814 2961.86910629272 3308.06949996948 3104.56414794922 3004.0728302002 2716.37258148193 2367.67101669312 2273.7730178833 2041.51448440552 1895.7506980896 1808.57547569275 1736.42582893372 1667.68656921387 1616.25469017029 1575.82139587402 1502.92280769348 1468.50521278381 1400.23274803162 1331.45391082764 1341.5880279541 1372.8952999115 1396.29747390747 1417.648645401 1419.89260482788 1429.63294410706 1435.52565574646 1460.95357704163 1544.46883964539 1544.19111442566 1527.48474884033 1540.16187667847 1563.37445449829 1749.23254203796 2096.53705596924 2294.24535751343 2253.74739456177 1989.27712249756 1731.57906532288 1719.83742523193 1648.49838638306 1545.25135421753 1469.01324462891 1441.44955825806 1449.52276802063 1418.42156219482 1405.30171012878 1379.78950691223 1347.44007873535 1390.62202262878 1397.39491462708 1446.01873397827 1500.89473152161 1577.04014396667 1647.33371734619 1580.49930763245 1546.93422698975 1537.59705543518 1574.09517097473
1356.40765762329 1423.36417961121 1417.94905090332 1213.02939414978 1239.25951385498 1230.59375572205 1121.54618453979 1302.68905448914 1160.34116077423 1180.08824253082 1411.08926963806 1507.97350883484 1484.83799362183 1292.40509414673 1191.88191890717 1276.63910484314 1397.42520523071 1417.58695983887 1251.05605888367 1121.7902545929 1119.53678131104 903.010475158691 984.48325252533 872.872948646545 707.927447319031 697.201853752136 721.30767250061 748.236113548279 727.770660400391 724.073266983032 732.598247528076 740.945714950562 753.578441619873 767.375658035278 783.144842147827 798.858403205872 857.227039337158 984.553002357483 1382.07100486755 1435.71498298645 1158.96052265167 1430.53528594971 1471.56760215759 1412.16795349121 1321.02186012268 1507.06360626221 1848.47367668152 2127.24154090881 2219.8041973114 2105.36134910583 1786.04689788818 1684.45189094543 1971.02919769287 2075.7740688324 2339.87516212463 2350.42455101013 2005.11087989807 2099.99240875244 2149.16430854797 2493.95353317261 2606.82382202148 2402.823097229 2255.90286064148 2188.60118865967 2101.46461868286 1937.73326301575 2145.68163490295 2239.90716171265 2533.70455932617 2281.89119911194 2398.34399795532 2706.91446685791 2863.10042190552 2567.36087036133 2195.2615852356 2077.97787284851 1959.48361778259 2011.87461090088 1794.02957344055 1662.17396354675 1754.75910949707 1755.64298248291 1924.65929412842 1875.30267906189 1615.90175056458 1498.05817985535 1475.70843696594 1471.067237854 1490.21973228455 1503.08616065979 1525.236328125 1555.69603729248 1555.80365180969 1557.39526367188 1541.54243087769 1519.45114135742 1488.11116600037 1474.58271980286 1460.16212081909 1458.72614479065 1464.94847297668 1478.53463935852 1492.8747215271 1507.00001144409 1584.7928237915 1815.29710769653 1931.75796127319 2003.98133468628 2144.26378631592 2261.21530723572 2402.1349029541 2188.16696548462 1873.54961585999 1860.95785331726 2075.76463127136 2534.57711410522 2836.88990402222 2889.19769287109 2336.7683467865 2015.63681411743 2039.04326438904 2191.29088020325 2423.49610519409 2560.81090927124 2430.08139038086 2707.49993515015 2773.17404556274 2668.2596244812 2605.56274795532 2864.27902603149 2687.70513153076 2520.54658889771 2465.70849227905 2386.03031158447 2626.71165466309 2510.29176712036 2488.5800819397 2470.91914749146 2535.12166595459 2533.01673126221 2753.43352127075 3099.2940826416 3098.20346069336 2773.56505584717 2685.05699539185 2525.11901855469 2259.18656539917 2115.52035331726 2035.30982589722 2009.21625900269 1981.59781265259 1855.40056419373 1702.63276672363 1566.47437667847 1501.37702178955 1502.29466438293 1435.6677570343 1378.62882423401 1495.03029060364 1594.15396118164 1569.28789710999 1486.01370048523 1471.93095588684 1516.29749679565 1561.14253234863 1521.64792251587 1591.57789802551 1613.25710487366 1700.66236495972 1638.34971237183 1606.66473388672 1799.48937797546 2244.07838439941 2346.22276306152 2257.63844680786 2008.42098808289 1650.11378097534 1589.65295791626 1550.21671867371 1488.37987327576 1484.70893478394 1434.47554397583 1412.50626373291 1427.4016418457 1388.55605888367 1400.00695610046 1423.35903358459 1453.80563163757 1467.66528511047 1449.64185714722 1481.51108932495 1526.31635475159 1599.85844039917 1623.89818763733 1585.1186466217 1572.38078308105 1553.81349563599
1262.35200500488 1322.18091201782 1468.50230407715 1428.86393356323 1561.76030158997 1376.92186737061 1077.2200012207 1211.38476371765 1184.9303188324 1357.16662025452 1423.830286026 1403.53597450256 1321.10441970825 1346.67499160767 1396.48352432251 1364.68781852722 1428.21098327637 1309.14991188049 1119.30771350861 966.342425346375 976.547483444214 1168.51854038239 1180.85397815704 869.086676597595 762.622264862061 719.058109283447 692.062475204468 715.754019737244 754.32820224762 769.009737968445 754.394289970398 751.781834602356 768.769236564636 790.325506210327 801.209076881409 818.047574996948 837.354009628296 852.463927268982 1055.98102283478 1390.97093009949 1100.54070472717 1173.96569633484 1188.91540527344 1324.91719818115 1325.92270851135 1504.2870388031 1902.56422615051 2153.11780929565 2332.65946388245 2308.71717453003 1805.89359855652 1539.42024421692 1769.19656944275 1771.53608703613 1915.61402511597 1955.44892311096 1953.3205242157 1920.5260181427 2122.78527832031 2280.92962837219 2454.60712051392 2308.86735534668 2331.54320144653 2166.33506393433 1944.51959609985 1813.08860397339 2190.09109306335 2139.75385284424 2080.56097602844 2083.18338394165 2226.22031211853 2199.75210189819 2552.54557800293 2492.56914138794 2229.64726066589 2313.35712051392 2010.11126327515 1884.95231437683 1660.45804595947 1633.07257652283 1620.64043045044 1617.97398376465 1651.09861946106 1604.49415969849 1554.90333366394 1511.32996368408 1489.57565116882 1498.65061759949 1514.66861343384 1546.96611404419 1568.03660964966 1603.198097229 1607.39599227905 1577.51604652405 1587.5093421936 1544.75957298279 1499.49640464783 1516.32471656799 1471.55098724365 1453.13303947449 1459.98321723938 1476.66730880737 1512.93842697144 1548.79775810242 1585.94084358215 1666.96107292175 1712.52655410767 1698.90796852112 1804.74908256531 2194.11844444275 2169.11495399475 2128.87309074402 1951.79783821106 1901.46175003052 2198.07685852051 2624.82075881958 2819.47723007202 2464.48036575317 1952.29284286499 1974.74488830566 2057.39924812317 2337.85074996948 2670.6971244812 2389.9836769104 2331.85987472534 2478.92874908447 2546.74250411987 2531.70471191406 2550.93911361694 2813.62292861938 2782.54668426514 2666.96719360352 2503.22477340698 2378.62936019897 2305.56540298462 2308.64561080933 2327.25835800171 2312.57014846802 2226.69460296631 2314.60457992554 2548.14260101318 2828.11653900146 2770.39060974121 2551.88231658936 2520.01054763794 2326.80176925659 2230.94565391541 2282.03163146973 2567.02457046509 2522.26861953735 2468.78601455688 2150.24799919128 1861.79664230347 1732.32009506226 1649.00665283203 1643.01426315308 1477.05732917786 1430.81687927246 1550.08604049683 1651.81966400146 1707.03434562683 1676.56202316284 1599.15561103821 1638.85111618042 1801.60103607178 1799.32690811157 1753.73115921021 1763.0196647644 1765.63830184937 1833.63732337952 1940.4718875885 2111.23383712769 2413.56874847412 2322.01399230957 2206.07087135315 2056.04116821289 1709.53664779663 1652.74741172791 1629.41213417053 1541.52353477478 1508.08577537537 1462.76627159119 1475.77214431763 1483.08525085449 1432.57774162292 1456.03544616699 1512.49252700806 1543.66020011902 1544.36250686646 1505.72106742859 1559.99581718445 1598.31692314148 1621.55775260925 1615.39059638977 1579.13380813599 1574.59617996216 1544.35193634033
1256.67160224915 1277.50968933105 1603.85579681396 1630.01596641541 1596.69546318054 1408.63512039185 1258.93543624878 1105.92477989197 1202.13918685913 1357.3874874115 1392.12679100037 1439.88453102112 1359.36962890625 1324.1300945282 1328.24502563477 1313.59317207336 1223.19971656799 1194.14647865295 1068.00484466553 1013.39503002167 998.080263137817 1355.59976387024 1184.26432037354 871.194905281067 926.828224182129 858.287693977356 730.315635681152 723.884838104248 716.517877578735 789.265093803406 795.536130905151 773.420133590698 778.993630409241 800.718078613281 823.851271629333 846.559376716614 886.577414512634 914.084818840027 938.34884929657 1044.67623710632 1188.32075405121 1401.48756599426 1295.38369178772 1236.85153007507 1286.83333396912 1382.39518928528 1556.54760742188 1691.1726398468 1838.57262420654 1929.33564186096 1681.82466888428 1779.19752883911 1985.2240562439 2120.23972129822 2321.71278953552 2443.91415405273 2453.95684051514 2181.64037132263 2126.02122879028 2062.36845207214 2111.03498268127 2316.44575691223 2180.32654762268 2084.98801040649 1895.40279960632 1731.1547203064 1989.18809509277 2103.12319374084 1920.66661453247 1770.2323589325 1896.2352809906 1923.56527709961 2042.44477653503 2007.12984466553 2212.64126777649 2354.0344581604 1907.38702392578 1696.91642189026 1660.10960769653 1643.01531982422 1631.92466926575 1626.55458259583 1585.0912322998 1559.94743537903 1534.01616859436 1516.93584251404 1503.11856651306 1512.97066497803 1554.08997917175 1594.73398971558 1630.16451644897 1632.20963478088 1603.09887886047 1573.12358474731 1553.7765750885 1534.74424362183 1488.68614768982 1480.07182312012 1450.77178764343 1443.68681716919 1450.60013580322 1484.12137794495 1640.2677192688 1692.74474906921 1682.67812538147 1800.36079025269 1906.07858657837 1781.0915813446 1743.33175468445 1865.03820228577 2043.31744194031 2152.72896385193 2139.92181396484 2333.27969360352 2334.83298873901 2551.75988006592 2580.44032096863 1994.90069198608 1960.28106307983 1950.1010723114 2136.66855621338 2549.32975387573 2905.60007095337 2977.47715377808 2622.97229003906 2624.62511825562 2401.6904296875 2505.71680450439 2665.7534866333 2658.94232559204 2828.8454208374 2832.56888580322 2818.6213684082 2780.82648468018 2554.22696685791 2274.42546081543 2183.55094146729 2254.15024185181 2118.60619735718 2264.32744216919 2294.23466873169 2486.82339477539 2472.60099029541 2193.83486175537 2187.06842041016 2112.36248970032 1994.91770553589 1925.73715400696 1979.15592956543 2069.00218582153 2191.27944755554 2210.42809104919 2092.57574462891 1811.28885269165 1682.96313095093 1764.06513977051 1857.56988716125 1729.40710639954 1859.55709648132 1928.03788757324 2027.61804962158 2013.79086303711 1826.87996101379 1847.20754241943 2014.29863739014 2087.99874687195 1974.29754066467 1903.10798835754 1972.90514183044 2185.08448600769 2197.57852745056 2456.60544204712 2482.08726119995 2467.75420761108 2320.92629241943 2123.90240097046 1851.8694152832 1712.64066696167 1686.33544921875 1566.60262298584 1495.21443748474 1602.95667076111 1589.37762451172 1500.29533195496 1460.58460426331 1457.02061843872 1530.10047912598 1612.71120452881 1640.10844230652 1592.25713920593 1606.9007396698 1648.70698738098 1620.23703956604 1592.91306877136 1581.94940757751 1537.72356796265 1514.19652175903
1256.45856285095 1284.93947219849 1528.83924293518 1584.4923324585 1481.0034160614 1269.52467536926 1170.75856018066 1122.25617408752 1317.38560295105 1416.6856918335 1441.30075454712 1581.14922714233 1407.66938591003 1314.8349609375 1336.10149002075 1358.05826568604 1244.70307159424 1292.27254676819 1144.15333557129 1029.1320848465 963.194124221802 1225.42294311523 1219.0800743103 1084.49692726135 1282.73487854004 1222.02395534515 1031.40963745117 863.927392959595 738.579026222229 793.99774646759 830.555791854858 808.537427902222 818.757822036743 856.04660987854 843.143802642822 855.177930831909 895.475482940674 944.86821269989 999.907850265503 1069.93080615997 1147.81399345398 1234.61239242554 1311.31911659241 1362.40423774719 1427.29683303833 1371.09341049194 1420.76668167114 1663.75967597961 1853.66224479675 1611.11001205444 1469.35111999512 1657.94416427612 1884.39837646484 1827.35419464111 1971.1187171936 2095.10726737976 2201.97090339661 1927.8927154541 1899.30818939209 2156.56722450256 2015.06709861755 1853.86864471436 2063.33587646484 1980.36699485779 1758.69172286987 1825.3958530426 1675.08046531677 1964.47136688232 2010.06002807617 1735.79933166504 1758.33052444458 1787.51149749756 1810.99045753479 1780.44471168518 1987.44169235229 2086.80640220642 1888.40880584717 1740.4409160614 1709.39726448059 1671.10740280151 1645.13045883179 1645.99028587341 1618.08728981018 1550.89285850525 1541.50813865662 1541.43557929993 1516.92318916321 1516.31340789795 1546.6490650177 1593.19000244141 1597.70067024231 1569.60281181335 1569.77731323242 1565.82206344604 1528.57926750183 1507.27656173706 1463.65281867981 1436.98313713074 1424.77196502686 1429.82263374329 1436.5144443512 1510.06792640686 1727.80334854126 1716.72249221802 1720.37544059753 1857.74150466919 2014.03048706055 2060.98808670044 1805.09725570679 1708.31784820557 1736.83836555481 1976.63914680481 2302.94208526611 2305.26089668274 2504.16301727295 2466.79104232788 2241.30414390564 1882.56149673462 1989.20909500122 2267.84566116333 2597.30055999756 2879.24348449707 2847.93552780151 2905.05084991455 2880.84254837036 2984.34936141968 2800.51039886475 2563.81105041504 2765.15085601807 2760.5577507019 2726.83703994751 2777.32457351685 2924.99803924561 3159.01512145996 2969.27862167358 2809.98909759521 2519.91455078125 2228.77198600769 2063.75270080566 2078.76787948608 2032.35889816284 2078.72842788696 2135.89755249023 2037.65626907349 2040.52584648132 2026.88812828064 1958.14458847046 1910.62454986572 1858.56960868835 1795.60928916931 1766.48128700256 1778.57351303101 1897.77683639526 1823.3806552887 1807.86904525757 1970.50343894958 2002.49383926392 1835.58802604675 2023.02428627014 2126.41853523254 2266.58975410461 2285.5150718689 2082.95086479187 1845.6616897583 1858.34613990784 1974.17400550842 2060.37939834595 2149.57157897949 2172.28258323669 2430.9221496582 2427.35632324219 2604.13683319092 2530.39113616943 2417.36019515991 2234.22205162048 1985.15564537048 1844.66806793213 1792.34936523438 1706.47743415833 1587.52478981018 1521.27208328247 1623.88120651245 1669.82517051697 1518.85255050659 1506.6425743103 1501.8226890564 1502.05544281006 1588.93832397461 1740.60229110718 1738.30200576782 1660.65723228455 1620.57760810852 1600.16998291016 1565.48962974548 1538.82552337646 1525.60277938843 1495.3809928894
1253.96593666077 1280.99100112915 1304.42377853394 1339.5701751709 1305.22331428528 1185.47060775757 1222.58530044556 1322.91483688354 1486.0728263855 1460.91917800903 1523.12176895142 1553.33772277832 1486.38042449951 1365.82772827148 1354.99502944946 1409.43877220154 1380.8739490509 1332.36175918579 1057.44149589539 1074.38274383545 933.556446075439 1023.49706459045 1187.39663314819 1187.21531391144 1455.62613677979 1324.39925384521 1332.42079162598 1196.28672599792 1004.79738140106 795.211695671082 773.283319473267 821.229032516479 823.778035163879 875.278886795044 896.601896286011 867.826505661011 881.555424690247 909.592496871948 952.796772003174 999.3449010849 1047.37622356415 1079.20221233368 1173.26016998291 1337.42058181763 1440.27655982971 1634.32202529907 1359.89332008362 1634.46441650391 1649.10161018372 1451.4799041748 1468.77729415894 1642.38460350037 1718.53129196167 1810.27311897278 1872.49529647827 1731.54959487915 1621.60538864136 1609.77410507202 1606.32871437073 1657.62099838257 1678.42330932617 1705.75608444214 1744.43785095215 1750.89888572693 1619.32273101807 1630.15704536438 1528.24586677551 1602.26652526855 1888.513048172 1884.57320022583 1693.34712409973 1831.46227645874 1685.49216270447 1718.55088996887 1649.91071128845 1780.54718971252 1735.68034172058 1730.87636184692 1682.04092025757 1652.35975265503 1615.3889465332 1632.88306427002 1629.08820533752 1557.35621070862 1653.62871551514 1598.59255599976 1577.16307258606 1545.73651313782 1529.9005317688 1498.04165840149 1486.1759147644 1475.28200912476 1491.8140296936 1499.8625087738 1471.92644691467 1457.67206192017 1443.21792793274 1416.57815361023 1412.0302734375 1420.77307319641 1478.26329231262 1651.53852272034 1851.44527244568 1753.88317680359 1834.08392715454 1877.80892753601 1992.19278335571 2046.52910041809 1900.00843811035 1992.33228874207 1809.84885597229 1755.78115844727 2176.86039733887 2565.58957672119 2467.10335540771 2426.14638900757 2258.10387802124 2019.39251708984 1935.57687187195 2093.38953208923 2400.86014556885 2702.08290481567 2876.5467300415 2656.89477920532 3073.35412216187 3073.7950630188 2914.49225616455 2762.5224647522 2775.7158164978 2697.33278656006 2621.4479598999 2754.27770233154 2966.55445861816 3257.88660430908 3395.32471084595 3206.29397201538 2925.0030670166 2719.82355880737 2235.82834243774 2052.59007453918 1969.88974380493 1911.85067367554 1960.48609352112 1947.42113494873 1920.36730575562 1958.2140750885 1907.87486839294 1845.93688392639 1830.36874389648 1773.65155410767 1697.09871101379 1674.63300323486 1620.09602928162 1555.13531112671 1530.30652809143 1523.38188171387 1514.87410926819 1500.88054084778 1629.12498855591 1730.2608757019 1892.15274047852 1863.22378158569 1885.75360679626 1837.78657722473 1702.53121757507 1726.70593070984 1818.73247337341 1915.37182998657 2182.0089225769 2371.88696289062 2427.48616409302 2597.14094161987 2381.94916915894 2145.28930091858 1957.33888435364 1887.00464630127 1881.59638404846 1795.27814483643 1722.73710441589 1628.06151771545 1548.01068687439 1570.29417610168 1637.25707244873 1560.39589500427 1567.43141365051 1515.80319023132 1504.83386993408 1559.60893821716 1690.64879417419 1782.07244682312 1679.58853530884 1641.05839157104 1617.19730949402 1602.99968528748 1570.23407936096 1535.84223747253 1504.46522903442
1247.10947990417 1277.17512130737 1374.92296218872 1345.83439826965 1240.8614025116 1224.73845100403 1340.60518455505 1418.03993225098 1517.25358390808 1598.2709197998 1456.39876556396 1377.66858863831 1358.4175491333 1344.91210365295 1469.34459495544 1463.4434223175 1373.29184532166 1221.22496128082 903.64416217804 997.561399459839 985.986134529114 1268.45668315887 1401.23881912231 1210.02779579163 1249.32011413574 1288.47461509705 1480.46595573425 1521.15958404541 1335.32780075073 1010.11568832397 791.431780815125 729.443691253662 764.18078994751 844.124081611633 877.062309265137 892.270420074463 935.604961395264 948.352514266968 962.366127967834 960.393005371094 979.66766166687 1005.74850940704 1041.16738414764 1111.60126876831 1284.88535118103 1443.76819038391 1491.05868721008 1434.40154075623 1487.86361885071 1534.31059646606 1642.34967422485 1666.1193561554 1655.48727989197 1630.26252746582 1583.02087974548 1553.13452148438 1546.43786048889 1539.27258110046 1537.22533798218 1531.20603179932 1527.655210495 1535.24663543701 1524.31358718872 1516.67743110657 1509.14305496216 1518.78570556641 1532.79132270813 1505.74085998535 1539.37838554382 1579.2737903595 1537.49457550049 1476.66261291504 1473.45030212402 1495.63525390625 1533.53595924377 1597.53092956543 1644.50987625122 1661.38855361938 1639.75839042664 1615.26878166199 1588.8300037384 1579.43275260925 1584.12921714783 1567.29453277588 1602.58929634094 1626.31053543091 1551.28343200684 1515.81307792664 1480.69318008423 1455.72086906433 1445.67505836487 1432.1108379364 1417.20325279236 1419.14192199707 1411.96887588501 1410.39100456238 1407.9857749939 1400.18623352051 1404.79988098145 1491.02962875366 1758.31356239319 1892.38300323486 1983.64392471313 1829.91186714172 1871.8643913269 1956.7402305603 2020.51357460022 2001.04381942749 2017.68453025818 2217.85087585449 2235.98767852783 2118.84372329712 1862.5743522644 2090.40773010254 2333.20422935486 2554.38807296753 2423.59256362915 2145.14227676392 2105.79678153992 2003.65851402283 2179.90229606628 2544.91109466553 2305.35312080383 2248.20231628418 2542.07765960693 2744.904712677 3059.36870956421 2912.53506088257 2805.597240448 2579.54441452026 2551.87054443359 2707.86069488525 2697.51477050781 3162.87983703613 3490.07621765137 3526.79656600952 3309.67181015015 2939.65156173706 2578.42862319946 2324.30253410339 2114.64099311829 1924.87689399719 1832.90182685852 1840.43920516968 1846.32405090332 1837.44548606873 1856.47870445251 1835.54006195068 1764.94051933289 1727.25421524048 1725.69129180908 1656.45753097534 1595.40549087524 1547.38313484192 1518.91689682007 1498.10541725159 1471.55393409729 1445.18481254578 1471.93815231323 1546.58832550049 1603.2708568573 1634.27370262146 1674.37538909912 1634.4434223175 1639.27166748047 1675.27720069885 1729.45805168152 1847.07082748413 1954.55772018433 2087.92530632019 2328.34914779663 2359.31898880005 2140.22350120544 1991.70163536072 1941.22963142395 1873.00748443604 1857.42345809937 1828.19829368591 1743.48738098145 1611.05960083008 1574.83717346191 1626.25043678284 1629.40418052673 1613.32022476196 1568.73482131958 1552.63561820984 1550.68209648132 1554.00448608398 1633.49196434021 1758.24520492554 1718.80163002014 1682.82432174683 1661.46827697754 1622.69331169128 1596.65000534058 1559.61255836487 1536.52286529541
1269.82410049438 1275.32627487183 1351.31293869019 1370.58264923096 1403.83764266968 1313.17002105713 1398.92868804932 1479.66895103455 1546.04675674438 1530.28242874146 1489.71265602112 1267.95740699768 1242.4665222168 1298.92733573914 1452.64208221436 1385.95718955994 1318.77192115784 1136.26788139343 1034.41425037384 1230.74304294586 1271.72966384888 1559.87398719788 1518.78475189209 1349.73971939087 1300.61395835876 1351.35208892822 1642.74746894836 1712.01171875 1336.68564414978 1226.75146007538 1052.90100193024 840.162669181824 822.310752868652 869.806173324585 863.634452819824 933.242351531982 973.064613342285 1003.97275924683 1005.443775177 966.95992565155 949.236210823059 965.246777534485 991.457452774048 1031.34290027618 1099.53339195251 1232.1187286377 1437.31422996521 1532.61015892029 1768.58235931396 1836.70731544495 1744.72019386292 1699.69645118713 1633.94939231873 1601.44244003296 1581.90627098083 1595.51302909851 1598.18129920959 1556.20454597473 1560.14168930054 1628.53379440308 1592.5463848114 1630.30924606323 1637.90261459351 1590.67354202271 1472.74889755249 1516.01811790466 1521.47926330566 1572.61785888672 1611.79826545715 1471.32794189453 1462.44328117371 1448.31500053406 1457.22839736938 1454.43508148193 1482.15619659424 1531.04020118713 1561.94109153748 1561.42982673645 1568.24028778076 1580.84251022339 1559.72974395752 1544.32422447205 1557.28552818298 1576.32662582397 1589.18380737305 1589.96042251587 1526.62448692322 1479.45705032349 1440.89684104919 1421.16646194458 1403.74851417542 1391.51807403564 1377.08444976807 1369.36569786072 1373.90063476562 1379.20967292786 1384.0304775238 1392.6989364624 1435.60539627075 1509.91146278381 1679.63125228882 1980.29931259155 2080.3000202179 1925.05437469482 1990.26312255859 1942.13105392456 1986.52632904053 2107.64644050598 2122.91109657288 2182.9542388916 2165.64242172241 2113.17394256592 2092.32239532471 1798.7557926178 2150.51013565063 2472.2299118042 2643.13074111938 2316.05625534058 2000.27604103088 2326.12119102478 2103.31154060364 2400.88804626465 2181.32702064514 2125.46069335938 2164.82050895691 2235.7202796936 2603.93263626099 2830.54434204102 2822.91521835327 2584.57405090332 2562.70053482056 3019.95486068726 2989.34354400635 2988.70963668823 3504.23891830444 3554.75315093994 3188.54873275757 3244.10766601562 2973.2767791748 2718.17874145508 2345.86215209961 2065.54164505005 1971.05073356628 1852.81776046753 1783.20142364502 1771.05858802795 1739.77291297913 1738.13296127319 1750.18280601501 1703.83036422729 1654.09199142456 1640.70122718811 1615.18073654175 1579.10174369812 1562.86805152893 1516.10188102722 1479.68984794617 1452.25524330139 1462.99033737183 1512.95274543762 1557.92869186401 1577.84501266479 1606.10764884949 1614.78339958191 1631.63007354736 1645.87741661072 1695.50217437744 1764.31070899963 1845.5746307373 1914.80450248718 1956.57927322388 1989.56574058533 2051.35425567627 1990.44390487671 1837.48139190674 1776.33667945862 1739.30936050415 1710.25096511841 1629.52212715149 1613.67552947998 1614.14080238342 1647.33542442322 1632.22498893738 1637.39914321899 1628.77781105042 1631.37414169312 1638.8817024231 1630.93447494507 1642.31678581238 1761.12293434143 1806.20628547668 1718.03412437439 1711.94152259827 1662.82422828674 1620.61219787598 1580.45473480225 1553.52171134949
1298.89272117615 1326.40619850159 1296.72686767578 1278.3504486084 1295.96506881714 1260.10666847229 1397.01419830322 1592.03190803528 1593.31766319275 1326.26208496094 1240.4453830719 1242.70393753052 1243.45806503296 1286.66510009766 1292.48344230652 1157.57557106018 1114.06829166412 1154.22571659088 1382.28975868225 1409.18991470337 1492.8784236908 1625.41181755066 1533.08857345581 1645.05193901062 1371.17287826538 1452.53575515747 1628.13805580139 1684.77135467529 1409.08741188049 1342.44417762756 1212.15915679932 980.103456497192 922.570906639099 937.480658531189 848.470653533936 898.382356643677 955.199313163757 973.863419532776 970.613228797913 948.185942649841 938.805391311646 940.486800193787 970.079216003418 995.154945373535 1021.54849815369 1053.10890769958 1153.27935218811 1321.81069946289 1536.35019111633 1801.67080116272 1791.76173210144 1763.64966773987 1720.80486106873 1724.63708114624 1730.64592933655 1752.42122268677 1795.81546974182 1735.96886062622 1655.31641769409 1683.2883605957 1684.93305969238 1727.77595329285 1711.51913642883 1624.3297290802 1474.11701393127 1418.66222381592 1438.18163299561 1409.86033439636 1409.41853904724 1413.15982818604 1421.00610542297 1431.936170578 1448.6414680481 1437.57150840759 1442.42211723328 1485.84208679199 1460.84023475647 1488.2958316803 1496.40947914124 1512.92017555237 1516.41486549377 1523.81432914734 1568.29692077637 1597.47037696838 1573.88716888428 1526.91987991333 1482.43587875366 1439.63903808594 1405.18695449829 1387.51747894287 1381.23270225525 1371.51560020447 1358.765209198 1356.6087474823 1364.43684005737 1375.15268325806 1386.82249641418 1449.59904289246 1692.31148719788 1733.46746826172 1669.58850669861 1880.80920600891 2068.75595474243 1981.54353523254 1993.4845123291 2016.26263237 1960.97588157654 1944.02042007446 2051.55686759949 2098.58069419861 2203.84854316711 2256.02933502197 2135.13530349731 1896.07572364807 1804.01797294617 2201.32823562622 2213.40765190125 2131.38275527954 2072.5526638031 2433.78937339783 2292.07257843018 2731.77058029175 2295.88928222656 2252.16892433167 2082.26440429688 2179.07450866699 2371.08274841309 2679.26580810547 2569.47245788574 2485.84703063965 2452.04555130005 2981.64559936523 3214.21393966675 3199.88969039917 3201.23123931885 3656.37608718872 3552.21849441528 3403.61782455444 3322.28178787231 3081.79229354858 2752.5675239563 2298.39783668518 2038.2438621521 1922.00800514221 1885.90301132202 1828.23464584351 1781.66018104553 1734.18252182007 1681.85303878784 1656.60385894775 1618.81355476379 1601.34602355957 1608.65883827209 1613.60050010681 1557.31574440002 1521.81614494324 1496.43777656555 1461.21265983582 1497.35843086243 1550.71750068665 1594.11190605164 1585.92854499817 1635.14496231079 1679.83672523499 1706.7359085083 1692.96863555908 1704.60388374329 1725.6704864502 1756.7112197876 1791.78733062744 1829.15847015381 1864.11544799805 1857.50216674805 1853.82422828674 1818.79717254639 1726.8761177063 1667.86307525635 1652.378282547 1650.47761154175 1699.43426322937 1677.0445766449 1686.71135139465 1695.62652397156 1683.60417747498 1684.4723739624 1653.12068748474 1678.97359275818 1722.08026695251 1724.54261016846 1742.53907585144 1805.85139083862 1759.70044517517 1705.20992851257 1647.40716171265 1609.75226402283 1591.66253089905 1549.69433021545
1306.19418907166 1312.75095939636 1469.08694839478 1414.68504524231 1445.57779121399 1501.66876411438 1493.64779853821 1531.53932571411 1358.99011039734 1263.71085357666 1271.93120765686 1289.6388092041 1259.03765869141 1228.95092773438 1142.72643566132 1212.09309959412 1311.9868144989 1371.18004417419 1376.95590209961 1356.59018325806 1373.34272575378 1385.38676452637 1409.33508110046 1433.88365936279 1431.17175102234 1459.79923248291 1680.41746139526 1926.01355361938 1692.68320655823 1728.26130867004 1519.59468269348 1123.30189704895 1017.05745983124 939.143663406372 828.876158714294 768.79768371582 840.157173156738 890.57953453064 908.006776809692 922.852139472961 926.505659103394 933.489505767822 950.927565574646 973.888969421387 960.81861114502 990.879076004028 1042.12801074982 1051.36840438843 1100.43686676025 1229.07380104065 1347.41488647461 1424.76878356934 1458.37959098816 1484.98923683167 1512.09120941162 1491.14434432983 1443.5777053833 1446.9090461731 1472.26266288757 1506.77961540222 1475.88162231445 1501.21964836121 1464.41768264771 1462.27401351929 1424.79885482788 1375.7550907135 1397.17647743225 1412.74464225769 1373.69326972961 1369.91840744019 1401.56909179688 1414.26654243469 1437.65825843811 1426.56473731995 1395.47510719299 1385.36028862 1390.39333343506 1426.09491157532 1449.26175308228 1466.55271530151 1472.23246765137 1498.24155235291 1543.95351600647 1595.46545600891 1554.20951652527 1481.61077690125 1439.15173912048 1401.92891311646 1375.43605232239 1364.9909286499 1360.52214622498 1357.06943511963 1359.22875785828 1358.17654800415 1388.10843658447 1491.98661613464 1537.86538505554 1511.07574272156 1702.24566078186 1841.51233673096 1814.23251914978 1786.09594917297 1886.582862854 2037.96697235107 2001.22267532349 1993.66111755371 1983.95944404602 1976.48140907288 1956.03980255127 2077.63509559631 2175.71030807495 2057.21101760864 2130.60962295532 2299.25444221497 1820.1745929718 1997.94557571411 2225.89192962646 2120.00879859924 2262.03247261047 2247.29573822021 2563.67752838135 2743.58739852905 2440.4758644104 2293.75380706787 2160.11576843262 2196.46453857422 2296.1029510498 2434.27988052368 2399.54298782349 2352.87022018433 2456.77194595337 2685.38735961914 3022.75262451172 3176.10606765747 3298.3063621521 3487.26058959961 3579.69167327881 3389.27585983276 3219.32286453247 3066.66723251343 2675.15135574341 2643.45638465881 2409.79837226868 2048.12345695496 1897.62775802612 1847.92937278748 1800.38310813904 1732.95949554443 1741.30427742004 1647.84276199341 1633.55681991577 1629.97358131409 1629.21778106689 1638.48788642883 1591.01593208313 1534.25113487244 1502.85377120972 1486.34725379944 1525.81609916687 1534.73600578308 1588.14837837219 1638.51510429382 1648.01604270935 1673.43789863586 1692.16065597534 1707.25733947754 1743.80100059509 1769.18758392334 1800.59029388428 1827.68532562256 1862.73928260803 1881.35910224915 1849.70668411255 1792.65577125549 1751.59459686279 1717.77391242981 1683.20227622986 1722.66728973389 1732.79707336426 1733.9368724823 1684.35790634155 1685.49633598328 1699.75651168823 1740.56869888306 1709.77460861206 1715.1862411499 1737.97326469421 1742.64798164368 1778.29372406006 1800.6919631958 1828.33962440491 1766.46900367737 1697.72418403625 1695.3374042511 1681.92408370972 1651.97894287109 1611.10822486877
1411.54769897461 1364.46573829651 1492.13585662842 1701.09844589233 1631.87408447266 1585.60136604309 1451.28690719604 1339.86114501953 1320.67204284668 1311.52966880798 1309.22488212585 1326.69843101501 1266.14679336548 1169.97864341736 1067.55561923981 1159.89977264404 1258.35509109497 1326.02617263794 1353.8159236908 1342.82452011108 1323.57600975037 1391.58681869507 1402.86535835266 1383.42401695251 1415.25673675537 1602.16220855713 1624.08625411987 1920.75018692017 1954.91101264954 1868.05576705933 1462.41133499146 1221.00142478943 1096.8246717453 975.898477554321 863.523896217346 786.996894836426 760.605738639832 781.267507553101 826.077249526978 879.80037021637 899.673581123352 910.178333282471 922.489595413208 938.903372764587 937.709536552429 939.279342651367 966.867089271545 977.042801856995 986.498425483704 1017.37274360657 1069.63043117523 1074.35321426392 1088.50596523285 1111.67065429688 1154.13192081451 1139.69398498535 1162.26975345612 1201.22524261475 1206.21603965759 1209.83212280273 1206.52833557129 1204.04013633728 1238.58041572571 1291.79997444153 1325.91228485107 1329.11331176758 1322.01593971252 1337.32417488098 1323.90666389465 1340.25098800659 1359.77070426941 1369.80997276306 1379.82075119019 1400.4596157074 1357.92008972168 1352.26765632629 1352.11908531189 1381.26615905762 1425.49583053589 1453.44624900818 1465.98290061951 1483.10147285461 1532.4850025177 1570.40456771851 1530.30866622925 1462.50489807129 1405.25754165649 1371.29998397827 1351.51099777222 1338.88899421692 1340.03282356262 1340.67085266113 1343.54227256775 1353.67538261414 1380.77119255066 1447.2985534668 1546.98083686829 1732.89074325562 1734.79813575745 1828.45816040039 1783.49230575562 1817.74545288086 1904.96786308289 1966.58762550354 2003.91460418701 1982.67503738403 2010.54814910889 2055.43783950806 1947.38645553589 1973.49378967285 2326.66056632996 2314.43504333496 2148.30695915222 2009.12647247314 1797.73605537415 1949.78553390503 2572.66961288452 2168.91720199585 2300.18205833435 2194.3607673645 2582.23249053955 2775.02046585083 2631.36973953247 2364.58261108398 2358.16032028198 2353.81014251709 2380.42581176758 2356.11638259888 2366.40588760376 2342.85286331177 2364.86721801758 2428.90947341919 2675.25360488892 2847.62158584595 2989.2082901001 3190.92483520508 3412.69065093994 3345.8860206604 3066.83403396606 2981.71475982666 3173.72386169434 3141.97455596924 2807.94515228271 2291.03078269958 2062.65935516357 1909.66686439514 1783.0691318512 1732.96863746643 1678.85608482361 1680.40118408203 1630.77971839905 1596.42931365967 1596.38949203491 1628.6297492981 1528.83853530884 1498.27229690552 1524.29752731323 1610.10582923889 1613.95797538757 1584.58847618103 1595.36241340637 1627.26452064514 1672.81788063049 1724.50554466248 1756.97949981689 1749.48453712463 1791.64875411987 1819.75535202026 1858.93935203552 1884.55070114136 1885.79703521729 1879.02396965027 1838.55150985718 1838.14113616943 1788.84946060181 1727.26049041748 1739.99401092529 1734.20951652527 1722.45035743713 1723.80074691772 1690.00592041016 1664.02136802673 1655.69132041931 1700.20115661621 1705.74900245667 1696.80823516846 1707.3336315155 1690.82746696472 1752.4079246521 1749.58954429626 1781.90633773804 1776.02471733093 1756.42310714722 1749.46426963806 1704.45031547546 1683.62356376648 1659.90570449829
1372.52855682373 1531.36614227295 1659.5232925415 1764.21706962585 1786.18415641785 1596.54949760437 1351.27886199951 1389.14954185486 1411.13502120972 1367.13482284546 1310.48754310608 1265.8080329895 1208.22215461731 1147.59483528137 1094.12829971313 1179.47708320618 1252.50195121765 1311.88070869446 1356.52469444275 1335.14422416687 1311.5212059021 1357.17534446716 1372.06815910339 1336.82943725586 1385.54907226562 1543.18827819824 1630.24011421204 1711.10104560852 2000.27559661865 2152.88184547424 1929.20293807983 1480.79892539978 1182.66546440125 1047.68989467621 910.939580917358 841.189045906067 815.400256156921 783.045930862427 741.263590812683 773.189485549927 838.66513633728 856.433896064758 872.324865341187 887.321775436401 917.35705280304 913.706178665161 919.108745574951 878.558835983276 911.982511520386 931.388043403625 902.692360877991 846.307573318481 818.778697013855 900.690703392029 959.3955078125 1022.28053092957 1040.10983943939 1081.10989761353 1082.47410011292 1098.94034767151 1120.79653167725 1142.73816490173 1166.6685218811 1201.47086143494 1233.41258621216 1252.00415992737 1270.92683410645 1284.64014816284 1297.77897071838 1311.82153892517 1336.42109870911 1340.22420501709 1344.67621994019 1350.7588634491 1326.17040252686 1318.97503471375 1339.24373435974 1364.77449989319 1395.23555374146 1430.22011375427 1456.23635101318 1493.40640830994 1544.95563316345 1543.8878993988 1521.49768066406 1440.95311164856 1380.78215408325 1354.06216812134 1338.88312721252 1325.59374809265 1325.47617149353 1329.42873954773 1349.16838264465 1363.48071289062 1492.0899848938 1549.99199867249 1525.645154953 1845.92163467407 1883.07780075073 1912.46168708801 1772.77520942688 1909.71071815491 1903.41744422913 1920.12924957275 1888.87551307678 1927.39938926697 2020.2871837616 1940.71376800537 2003.43008041382 1974.68719291687 2092.10708045959 2177.14352989197 2114.26235580444 1965.33806419373 1800.01716804504 1896.24323272705 2504.54215812683 2541.56164169312 2213.12165641785 2347.86220550537 2683.29370880127 2833.57363510132 2736.27299499512 2613.02407836914 2466.53129196167 2402.33160018921 2337.98384094238 2297.83753204346 2279.41374206543 2299.65907669067 2294.35467529297 2294.47759246826 2407.06824111938 2469.34601593018 2866.60083007812 3005.75082015991 3189.91004943848 3324.91878128052 3364.33274459839 3320.68440246582 3286.56817245483 3041.77328491211 2772.02819824219 2575.32297515869 2170.72325897217 1889.14593696594 1755.1978302002 1691.26759338379 1682.92289352417 1622.24110603333 1599.61482048035 1597.03671455383 1571.20761108398 1528.33472442627 1516.7059135437 1550.15734100342 1562.5414276123 1641.30165672302 1639.03326034546 1639.3024520874 1631.25424194336 1657.48070716858 1696.42129135132 1713.65824699402 1741.35241699219 1794.27828407288 1838.28478622437 1881.7147731781 1951.10604858398 1949.21815681458 1905.42218971252 1863.93980789185 1825.33403015137 1794.44318389893 1801.49865913391 1786.73880577087 1790.94704055786 1826.65382575989 1731.10523223877 1695.27313804626 1673.98908805847 1657.79653549194 1637.37954521179 1641.73197364807 1653.07734298706 1627.71935272217 1650.68944740295 1668.64610481262 1715.0555896759 1688.82382774353 1695.6709690094 1715.13824081421 1679.3306388855 1721.12421226501 1664.44338607788 1617.16228866577 1624.49523162842
1571.11839294434 1588.79682159424 1809.45010757446 1905.73474121094 1804.49336433411 1353.59739685059 1322.41725921631 1625.36249351501 1654.8397808075 1467.95438575745 1326.58318519592 1273.37911605835 1232.52549171448 1177.01738357544 1129.79670906067 1196.4174747467 1175.38697242737 1189.24933242798 1259.35948944092 1297.87834739685 1310.84649848938 1319.28623962402 1356.73894882202 1401.21977043152 1374.10844993591 1457.48247718811 1580.29371070862 1589.2726688385 1773.47805023193 1926.14410209656 1997.34439468384 1750.90361404419 1417.0805015564 1174.21815299988 1050.95918178558 993.815382003784 960.126150131226 898.457719802856 820.215377807617 776.83438873291 775.000100135803 799.34608745575 796.731954574585 814.345204353333 788.300019264221 822.629079818726 800.435972213745 827.551959037781 825.28199005127 882.351149559021 826.885110855103 867.421095848083 873.101259231567 887.471174240112 925.612765312195 960.856094360352 995.616221427917 1029.5661945343 1069.69529342651 1090.87916755676 1103.66769981384 1129.44846153259 1168.86724853516 1203.97829055786 1218.37627792358 1246.82001113892 1283.63828659058 1281.80285072327 1273.1543674469 1286.52522468567 1294.6272315979 1300.8291721344 1318.35273933411 1310.93943405151 1305.26588058472 1317.00309944153 1331.96393585205 1343.8366317749 1376.28938293457 1414.62235450745 1448.68200492859 1501.86469650269 1511.85659980774 1476.10414505005 1458.18371963501 1432.31628227234 1380.51005554199 1344.11800575256 1331.58193206787 1327.32412147522 1338.16088104248 1348.47883415222 1361.52777481079 1385.93319129944 1602.07179260254 1794.00521087646 1694.60612869263 2061.2310256958 2311.44235992432 1943.36027336121 1712.32893562317 1942.27754592896 2012.25953292847 1923.07844543457 1897.64599990845 1913.67270278931 1914.24261665344 1928.7866153717 2021.4747467041 2194.12051010132 2085.79493141174 2177.50576972961 2302.33358573914 2175.47054290771 1944.03097724915 1835.05090141296 2115.62968063354 2592.13180923462 2540.9386882782 2178.33040237427 2565.3712387085 2764.49187088013 2705.98333740234 2540.8187828064 2406.39617156982 2324.25954818726 2291.25770187378 2249.71019744873 2246.53276443481 2280.59208297729 2248.30957794189 2233.90044021606 2292.85071563721 2337.3670501709 2508.20734405518 2731.50852966309 2951.68702316284 3072.76996994019 3220.43229675293 3307.56909561157 3286.42251205444 3366.29530715942 3093.4340171814 2715.37478256226 2608.22891998291 2222.53876113892 1886.32001686096 1768.03889274597 1693.52588844299 1688.34014320374 1621.4446144104 1597.29940223694 1562.80248832703 1564.0463924408 1575.34877204895 1622.32599258423 1613.81380653381 1661.05730438232 1691.99645042419 1694.77046775818 1691.33614730835 1708.88047981262 1759.83629608154 1792.03695678711 1771.61266517639 1820.98529624939 1878.76934814453 1985.02185249329 2005.99566268921 1961.29632377625 1919.87850379944 1869.31066131592 1853.288854599 1839.77075004578 1819.9527015686 1828.30006217957 1837.41016769409 1861.8280544281 1754.60519599915 1712.80694770813 1709.87426757812 1676.67946815491 1634.93034553528 1614.74216651917 1624.22723197937 1615.77152824402 1621.59091377258 1642.34839630127 1656.04125213623 1628.85059547424 1613.91717910767 1649.82001304626 1650.48920631409 1634.14768981934 1611.68329429626 1602.93325805664 1560.19881248474
1871.52734375 1791.18767738342 1915.04494667053 1964.42347335815 1349.37553024292 1332.79333305359 1432.09994125366 1653.60828208923 1685.50601387024 1502.94549751282 1338.68258857727 1243.04284858704 1221.96196174622 1189.502368927 1099.63544273376 1089.49629592896 1158.93120002747 1189.59417915344 1268.4083480835 1354.07759094238 1341.64488220215 1371.38043022156 1421.25003433228 1536.42206954956 1478.18105697632 1477.37299346924 1498.97922515869 1508.4564743042 1586.26177597046 1649.73182106018 1652.44382667542 1651.39586830139 1732.89651107788 1399.61212539673 1366.32462882996 1218.44878196716 1097.0780248642 1018.11036586761 922.601428031921 880.04686164856 855.201457023621 804.454700469971 783.723415374756 800.658259391785 866.51842212677 935.431329727173 859.731678009033 873.167881965637 888.366808891296 926.74532699585 923.675100326538 897.13062286377 931.773873329163 955.340326309204 1004.65538978577 1010.69891834259 952.541226387024 996.713846206665 1038.19980049133 1074.63791465759 1098.37632751465 1127.20788574219 1169.57830429077 1208.90593719482 1215.64643478394 1206.20107650757 1222.16682815552 1239.96296691895 1271.61548995972 1290.17571640015 1324.49564361572 1309.00494384766 1295.47761917114 1300.12121009827 1342.08704185486 1321.1810798645 1325.00283050537 1328.94769859314 1364.01642227173 1386.19874382019 1438.83324813843 1494.85171890259 1476.2077293396 1445.23929786682 1420.35471153259 1392.5929851532 1366.68346786499 1335.80858612061 1330.64914512634 1343.6698474884 1353.03356170654 1422.33023834229 1587.50235176086 1433.0132522583 1593.44411277771 1780.52528762817 1699.11709976196 1863.44416618347 2058.37314414978 1908.12602424622 1702.90070533752 1665.29817581177 1824.35542106628 2035.89393806458 1921.59605789185 1924.66161155701 1872.44589996338 1937.27439117432 2031.91392326355 2104.14031410217 2054.31335830688 2243.26986694336 2233.79084014893 2148.11652374268 2133.02576637268 1913.66819953918 1989.3510761261 2447.66320419312 2717.30490875244 2265.18887710571 2473.69191360474 2755.79581451416 2641.98870849609 2479.6008682251 2357.15918731689 2323.37068939209 2307.12688064575 2246.12214279175 2216.21480178833 2209.79314804077 2190.9253616333 2223.29531860352 2206.21228408813 2217.5334854126 2273.53382492065 2390.10570907593 2581.68284988403 2824.4281578064 2995.48876571655 3156.97429275513 3389.76706695557 3273.78503036499 3174.72777557373 3221.90715408325 2894.11694335938 2566.7967414856 2175.6720123291 1864.37912940979 1715.58565139771 1640.431224823 1611.73597145081 1605.83796882629 1671.14562416077 1666.38038063049 1636.013671875 1619.1373462677 1661.12293434143 1707.98595237732 1769.27251815796 1764.46760177612 1759.08882331848 1795.96519088745 1830.78264808655 1836.07000160217 1819.81960105896 1853.69013786316 1919.5119972229 2032.54647254944 2135.83460998535 2140.54650115967 1959.9207611084 1934.32308197021 1919.38208580017 1889.81084060669 1874.78896713257 1832.73183631897 1807.07081413269 1808.37606048584 1759.58869361877 1721.65272521973 1693.01079940796 1688.48330879211 1654.76647567749 1611.99920654297 1595.32509231567 1586.39325904846 1580.80714416504 1577.89047622681 1577.61756706238 1568.98782920837 1564.9174747467 1574.08882713318 1557.83152008057 1547.07840538025 1540.9001789093 1526.73219680786 1517.23896598816
2053.63151931763 2095.60171318054 2127.36668014526 1564.99537658691 1326.77081108093 1312.98426246643 1521.18334197998 1604.14053726196 1639.44536972046 1533.61569976807 1422.52306938171 1294.56351470947 1204.69986343384 1167.07429885864 1135.44681358337 1124.39624023438 1159.93491744995 1216.1801071167 1270.75517654419 1361.42792701721 1384.69661712646 1421.67449188232 1465.76832962036 1560.83175086975 1595.90472793579 1691.28884887695 1757.63624572754 1674.16714286804 1672.28831100464 1674.91563606262 1590.12722969055 1657.7032623291 1627.8692150116 1595.50575637817 1671.24411964417 1501.19734954834 1235.16406059265 1086.46340274811 1021.63685035706 968.595693588257 888.047582626343 846.450173377991 873.703023910522 868.733866691589 849.044414520264 983.58874130249 986.517981529236 970.313424110413 920.963978767395 922.409684181213 931.539667129517 957.708207130432 969.659888267517 999.813920974731 1033.4908657074 1040.7834072113 903.162480354309 967.105136871338 1015.656042099 1044.65993404388 1069.67576980591 1104.91739654541 1153.81308937073 1188.57298469543 1193.42224693298 1204.28459739685 1245.76792526245 1259.24342346191 1281.82085609436 1296.60116004944 1310.82300186157 1377.23395729065 1340.43594932556 1308.80050086975 1318.93060493469 1306.49514389038 1306.18896865845 1315.16258811951 1326.42257118225 1345.65187644958 1381.3101272583 1402.22766494751 1397.52848625183 1382.22731971741 1378.39591217041 1390.10434532166 1349.78587913513 1343.13829421997 1377.28113746643 1447.91336631775 1438.26158332825 1521.56940078735 1919.88309860229 1821.00713920593 1504.63164901733 1582.87241744995 1522.86926841736 1716.94611167908 2211.51596832275 1981.91111564636 1663.76690483093 1633.87101745605 1678.77382278442 1889.3901348114 1926.76676368713 1902.97725296021 1893.21034049988 1937.26797866821 1965.50558853149 2030.77542877197 2082.19232177734 2129.75103569031 2410.63473129272 2177.02700805664 1984.32161521912 1845.91543579102 2036.57042503357 2577.87626647949 2797.17757034302 2416.12588500977 2647.94791030884 2841.99192810059 2605.27612304688 2467.69244766235 2383.8907623291 2320.4471206665 2272.11457824707 2250.75166320801 2217.73693466187 2193.51727294922 2172.8528213501 2270.54825210571 2219.35930252075 2169.75017547607 2176.97381973267 2228.65494155884 2290.09841156006 2705.32745742798 2930.92543029785 3061.30360031128 3136.39508056641 3309.37892532349 3394.69583892822 3154.47109603882 2908.92702865601 2944.69763183594 2604.19359588623 2185.1051197052 1806.11108016968 1753.58605194092 1648.39237976074 1660.25643730164 1727.39083862305 1761.88618087769 1688.12242698669 1646.71211624146 1714.34160232544 1797.57477760315 1939.61197853088 1954.15927314758 1864.78738594055 1891.66302108765 1920.45957183838 1904.98945045471 1884.5435295105 1965.89639091492 2028.49984550476 2119.82447052002 2249.7265586853 2269.11074066162 2262.43293190002 2109.2165222168 2003.18786048889 1975.01013946533 1903.0085105896 1866.42837524414 1833.20440483093 1807.5164604187 1780.95779418945 1749.14832878113 1705.39021682739 1643.07656478882 1650.43224525452 1644.1407699585 1699.34829902649 1765.83611869812 1743.56011962891 1680.85915565491 1615.4147605896 1630.30166625977 1638.34474754333 1628.91184425354 1645.95389556885 1613.98787879944 1589.95477104187 1585.46933364868 1561.38695526123
2233.34394454956 2418.65092086792 2018.40409469604 1329.61754798889 1453.56744384766 1294.74217033386 1401.673412323 1375.83111190796 1293.77285003662 1276.39190292358 1307.75511741638 1261.76152992249 1202.87248039246 1167.95398712158 1162.85669517517 1172.63324737549 1182.66736602783 1252.50212287903 1345.01506614685 1355.118516922 1368.96542930603 1429.37439155579 1426.06714057922 1466.69303894043 1506.78628158569 1759.22220611572 2050.33540153503 1911.13328933716 1918.28604316711 1898.04859733582 1745.04074668884 1794.15517616272 1769.04486274719 1824.76272201538 1908.27108192444 1685.21170043945 1559.63349151611 1439.36957740784 1246.82055854797 1115.12377929688 1028.08669757843 975.555130004883 978.966368675232 998.382046699524 970.907160758972 1062.3834104538 1098.50789928436 1095.62018013 1070.85300350189 1024.5513381958 980.896169662476 989.680478096008 982.457739830017 1024.43571472168 1068.6545715332 1059.10528945923 1003.50511837006 944.239503860474 987.231007575989 1017.91143798828 1048.96624183655 1083.78185653687 1140.19532966614 1210.85990333557 1217.22853851318 1208.28269195557 1226.44662094116 1234.71947288513 1307.3035774231 1337.16868591309 1315.58972358704 1357.19064331055 1337.19882011414 1297.00333786011 1290.6824054718 1286.08416366577 1282.81485939026 1291.20420455933 1301.47849464417 1307.9889087677 1314.63568878174 1332.10042381287 1347.84347915649 1350.37210083008 1353.51026153564 1351.06531333923 1339.32965660095 1440.3625831604 1591.44284057617 1680.26924133301 1565.76196289062 1501.05430603027 1783.75118637085 1912.74737739563 1757.77718162537 1938.48205757141 1544.97688865662 1650.54610443115 2273.01567077637 1914.7714805603 1760.27696228027 1701.21941184998 1673.60687255859 1728.1188659668 1888.67442131042 1886.17351722717 1845.05414581299 2026.4531211853 2010.01183891296 2006.4372253418 2101.75282859802 2326.41049957275 2352.22213745117 2227.12937927246 2054.24707794189 1892.47712898254 2056.25754737854 2509.41887664795 2826.31533432007 2547.87540435791 2697.34893417358 2906.56991577148 2725.15303039551 2595.00340270996 2432.72988128662 2399.36019515991 2340.42204284668 2250.55323410034 2195.32421875 2161.07469177246 2155.62432098389 2226.46130752563 2249.97111129761 2167.02278900146 2129.50679397583 2154.46870422363 2181.83690643311 2305.10054779053 2688.16841125488 2896.17904663086 2893.6944694519 3064.92506790161 3271.56491470337 3383.49217987061 3136.58656692505 2927.36727523804 2733.05433273315 2470.75841522217 2195.4864025116 1921.86121177673 1714.13955497742 1741.02251052856 1761.57449150085 1803.85571670532 1721.36507797241 1682.90426635742 1744.81351280212 1901.11526679993 2122.83775901794 2145.46474838257 2080.78541374207 2128.10377502441 2139.45848083496 2010.89972877502 1982.6584072113 2079.82639884949 2160.30089187622 2171.68008041382 2180.59939193726 2217.27432250977 2225.56864929199 2252.39639663696 2214.56525421143 2149.53451347351 2067.24952125549 2070.52398681641 2009.64927482605 1954.37857627869 1852.26455307007 1763.22842788696 1686.92575836182 1654.36521530151 1710.40655899048 1957.50646400452 2171.60417556763 2331.86487197876 2229.09232139587 1933.95969390869 1697.92282104492 1778.9931640625 1849.70482254028 1959.49469566345 1972.61311721802 1913.33885955811 1883.89470672607 1759.80595397949 1677.84070587158
2166.08973312378 2561.3106842041 1743.67198371887 1273.7352848053 1299.52348327637 1390.35801887512 1455.08041191101 1338.45352554321 1294.10345649719 1263.28737640381 1232.49394416809 1202.77689170837 1196.14350128174 1178.22925186157 1184.34132385254 1204.79510879517 1231.20796203613 1251.05183601379 1327.04495048523 1418.38103866577 1471.17528152466 1391.7503528595 1439.2469291687 1476.11945152283 1520.11951255798 1585.7380027771 1718.51422691345 1843.53336334229 1943.40378379822 1901.29598045349 1792.1713180542 1813.95636177063 1795.68846893311 1880.23414802551 1841.74639892578 1816.77299308777 1779.7685585022 1640.44010925293 1474.82055282593 1307.83221626282 1259.72278404236 1173.86249923706 1142.00839233398 1103.54256629944 1116.76998519897 1139.8047542572 1190.47543334961 1220.17658805847 1188.38102340698 1183.20837783813 1161.06647109985 1111.44247817993 1049.35756778717 1053.08936214447 1099.9150428772 1131.48989486694 1079.41459083557 1001.0266160965 967.259190559387 1021.75922775269 1029.61999988556 1057.54479312897 1097.98123455048 1139.4855556488 1157.83165740967 1181.25476455688 1197.20819473267 1222.89239692688 1251.27598571777 1273.17860031128 1272.44337081909 1287.61866569519 1286.9037322998 1273.67809295654 1270.97937583923 1268.17505264282 1267.98792648315 1273.65628433228 1284.07907485962 1284.00888824463 1286.77666664124 1298.29490280151 1303.50793647766 1311.80097961426 1324.37225723267 1362.48106765747 1411.49110031128 1542.33792686462 1865.90493583679 1697.94050788879 1596.57315063477 1550.13497161865 1644.53888320923 1775.39579772949 1978.82988739014 2122.67816925049 1565.6383228302 1518.82327651978 1844.09785842896 1811.12058830261 1874.87607383728 1905.8807182312 1675.06580543518 1702.80396652222 1794.4797668457 1818.38572502136 1804.86708831787 1935.40838241577 2201.34281158447 2125.8893661499 2052.85851097107 2218.3241443634 2371.17795181274 2201.11384963989 2070.71273994446 1999.03337669373 2069.56998062134 2601.20767974854 2806.23496246338 2651.89916992188 2704.11793518066 2886.7596321106 2689.77312469482 2593.89223480225 2435.89696884155 2312.09230041504 2244.5379447937 2226.24642562866 2187.96383285522 2130.79056930542 2139.43075561523 2193.42380905151 2149.27878189087 2117.88549804688 2143.86684417725 2208.14752197266 2194.4313659668 2186.14978027344 2306.51021575928 2492.14976882935 2757.46004486084 2829.97121429443 3143.64416122437 3278.27051544189 3226.20040512085 3263.70181274414 2998.66665267944 2752.02696228027 2508.44324111938 2203.00653076172 1864.10829353333 1814.84635925293 1857.5688533783 1879.69227790833 1756.82962799072 1726.214635849 1874.77779960632 2041.37852478027 2138.68911743164 2101.46187210083 2103.21351623535 2142.40088272095 2112.16032981873 2065.33811378479 2071.03421401978 2053.87254142761 2065.8651714325 2100.78026580811 2080.38398742676 2125.16320419312 2077.73628616333 2008.56303024292 2052.23875045776 2052.29700279236 1961.19724655151 1925.55084991455 1948.20154762268 1967.87234687805 1935.93660354614 1798.97459220886 1691.51088523865 1631.08544921875 1683.10278701782 1738.40655708313 1930.59588241577 2299.41905975342 2370.01387786865 2108.96278953552 2084.03245162964 2095.95497894287 2134.64313697815 2119.60960006714 2063.6948261261 2025.76303100586 1919.9995059967 1753.08082580566 1746.1297416687
2017.30340385437 2172.59280395508 1441.76337051392 1224.53852653503 1249.77355384827 1462.22478866577 1359.96313285828 1270.06172370911 1250.603307724 1282.1454410553 1246.09290122986 1216.86917877197 1239.98610305786 1263.87816429138 1242.74206924438 1235.01162147522 1309.10621833801 1310.05833435059 1367.19731140137 1444.92809677124 1502.0254573822 1448.95833587646 1426.9529876709 1475.52187347412 1475.17867279053 1544.65203666687 1618.26405143738 1700.96801567078 1752.99640083313 1694.62793731689 1663.36846542358 1731.18346786499 1774.36462211609 1819.03546142578 1828.01254272461 1808.05042457581 1760.1001701355 1729.67122268677 1648.13757324219 1465.08469963074 1410.77000999451 1411.41577720642 1333.2944393158 1247.9847984314 1184.65975189209 1173.20148277283 1219.45976066589 1253.75942230225 1247.77825546265 1230.18704414368 1239.07532119751 1213.88194847107 1216.0577507019 1192.39163208008 1163.67190551758 1145.21059989929 1136.26737785339 1108.39361381531 1118.87507534027 1149.40245246887 1123.28945922852 1110.92826843262 1089.74796199799 1098.82033729553 1134.93385696411 1163.96039390564 1218.87907028198 1225.17390632629 1243.5192527771 1246.73518371582 1269.56643295288 1287.29078865051 1271.52032661438 1263.75385856628 1264.07809638977 1265.11705970764 1275.39494895935 1306.88011169434 1339.17249488831 1331.44867706299 1308.69080162048 1293.93855476379 1338.27500724792 1353.76667976379 1460.76566886902 1517.71897888184 1453.07468986511 1489.28307533264 1820.35843849182 1998.63399124146 1826.49710655212 1570.17917633057 1630.78708457947 1743.21766090393 1857.20154380798 1916.67708396912 1510.51425743103 1464.33012008667 1649.2255897522 1711.19410705566 1807.79542160034 1910.55677032471 1766.02638626099 1689.98771095276 1730.21450996399 2048.13396644592 1870.79131889343 1821.13085174561 1999.71688842773 2304.76785850525 2239.00103187561 2337.05481719971 2338.28771972656 2184.43829345703 2177.78100013733 2312.57757759094 2150.59799766541 2487.86953353882 2842.26533126831 2785.57542800903 2756.19305038452 2974.16846084595 2714.71239089966 2582.20576095581 2427.25868988037 2298.27394104004 2193.86909866333 2144.14179229736 2132.39780044556 2107.32057952881 2137.21273040771 2126.35280990601 2109.95616912842 2132.44595718384 2185.76971054077 2216.80068206787 2220.23983001709 2194.41310501099 2203.58269119263 2247.32253646851 2521.92612075806 2562.08986282349 2716.06618499756 2844.41939544678 2891.89566040039 3225.44858551025 3039.8325881958 2759.27843475342 2597.80127716064 2498.57024383545 2224.20201873779 2069.76529312134 2006.14207839966 2033.18406867981 1913.03463172913 1938.72340202332 2039.58878898621 2038.63790130615 2028.36024856567 2031.63165664673 2020.45565414429 2067.84381484985 2012.26494026184 2013.71531486511 1985.73394393921 1969.90312576294 1973.8390083313 2022.70518684387 2037.73864936829 2063.71758842468 1992.27590942383 1950.26122665405 1935.35758781433 1911.33742141724 1857.5168094635 1837.05333137512 1866.27403831482 1911.72602653503 1882.70444107056 1750.59592628479 1641.81785964966 1661.62715530396 1721.55771636963 1766.95074081421 1869.08778953552 2110.60597038269 2268.43627166748 2303.94918060303 2299.00248336792 2282.94213485718 2372.40465164185 2256.4171333313 2193.71994018555 2139.24786567688 1950.80586433411 1960.73505783081 1734.81853485107
1990.71210670471 1524.90800285339 1266.44392204285 1220.35918807983 1273.0513381958 1402.69277572632 1291.78803634644 1252.38759613037 1254.09005355835 1309.59693336487 1276.86280822754 1259.17509078979 1303.73773384094 1424.97371101379 1408.67728042603 1238.38633537292 1317.73854255676 1427.64012527466 1448.35816383362 1497.82488632202 1514.45192909241 1495.21438789368 1411.22736358643 1419.31360435486 1485.55942153931 1580.79300308228 1725.29912185669 1705.80303382874 1688.34502601624 1676.62319374084 1658.60936164856 1679.03937721252 1749.57271194458 1778.21273612976 1781.61908531189 1774.42862129211 1795.06551170349 1743.80080795288 1675.55791854858 1573.05841064453 1491.40895652771 1497.76578330994 1451.51727104187 1372.46385383606 1303.46401977539 1253.33875846863 1230.15349006653 1275.94839859009 1274.35641860962 1288.83816719055 1321.95930671692 1337.89871025085 1310.63959693909 1271.72780036926 1277.73623466492 1222.18814277649 1173.79953765869 1175.01518440247 1193.44686889648 1223.73749351501 1222.77009391785 1207.75085639954 1181.04035186768 1168.48628807068 1181.82148361206 1211.70492935181 1260.84484481812 1248.88584709167 1262.26524353027 1267.6382484436 1283.55173110962 1295.10517501831 1274.1743221283 1270.21226119995 1268.3021736145 1272.86031532288 1307.79733467102 1357.80867767334 1405.10926055908 1351.27623939514 1329.58834838867 1319.6659450531 1415.92818069458 1479.00277519226 1764.37725067139 1704.30678939819 1549.24094200134 1493.094789505 1628.32536506653 2045.87095069885 1901.76328086853 1607.34477424622 1632.82120704651 1963.74722480774 1795.5505657196 1671.99234962463 1508.12602996826 1448.30733299255 1634.60715484619 1997.33818435669 2047.61399650574 2281.70380592346 1824.71249961853 1602.20642852783 1676.27744293213 2076.74193954468 2155.48831367493 2083.62763404846 1841.40635490417 2012.17756843567 2248.52090644836 2476.90201187134 2281.77116775513 2327.50819396973 2399.16208267212 2396.15787887573 2314.24430084229 2411.5491104126 2647.9497795105 2712.37215423584 2739.00217819214 2878.5613861084 2635.42122268677 2534.989818573 2362.912525177 2255.3543548584 2190.45925521851 2132.62349700928 2090.05293273926 2092.42538452148 2098.95204925537 2133.68562316895 2162.3530960083 2181.35112762451 2218.89812850952 2229.02084732056 2214.70121383667 2194.97807693481 2188.88866043091 2196.74879455566 2280.02501296997 2410.77796173096 2478.01445388794 2519.09202575684 2526.78426361084 2637.97055053711 2762.35513305664 2755.08639144897 2594.45789718628 2488.15124511719 2426.26822280884 2270.19691848755 2175.1788520813 2086.84001541138 2048.56900215149 2099.44389533997 2038.22655677795 2024.04968833923 2007.06464195251 2006.52401161194 1971.14255714417 1958.07256698608 1975.56237983704 1944.48770332336 1928.17782020569 1913.45889282227 1999.14697265625 2065.5766544342 2023.41015434265 1988.54005432129 1978.74929428101 1950.38281440735 1843.79121208191 1813.59649276733 1795.87568092346 1795.219581604 1828.25329017639 1905.4094543457 1803.01406288147 1732.48445510864 1770.86242103577 1762.17727088928 1803.18971443176 1854.12191009521 1984.10222053528 2067.54363632202 2189.91967773438 2299.24403762817 2366.45561981201 2366.69842147827 2512.30592346191 2466.6573638916 2477.8895149231 2243.82666015625 2182.50369262695 2172.76175117493 1941.69263648987
1620.50334358215 1267.50370979309 1237.5194644928 1223.54343223572 1292.11270332336 1277.42868614197 1272.80609321594 1268.34700012207 1281.02096939087 1359.51348304749 1318.6897315979 1330.69460678101 1402.21571350098 1434.09161949158 1445.82250595093 1344.98252677917 1465.00806808472 1540.7936000824 1527.96932220459 1522.71285057068 1504.93846321106 1458.91727638245 1452.56995391846 1477.3113117218 1523.31093025208 1687.29636764526 1842.17820549011 1879.83280944824 1690.90579223633 1596.54411506653 1583.4853553772 1655.37970352173 1730.2004776001 1797.73278236389 1759.70376396179 1742.30425071716 1737.20232582092 1762.26762962341 1766.0110874176 1734.95514678955 1616.35318374634 1542.00121307373 1503.44725990295 1452.60238647461 1391.24410820007 1360.59902381897 1302.07593154907 1371.02635383606 1361.73343467712 1341.3778553009 1369.72225952148 1423.73607254028 1399.09092140198 1347.64830589294 1323.42507553101 1294.47839164734 1240.20082473755 1225.43089675903 1252.97706985474 1298.8314704895 1343.25519943237 1299.85043907166 1295.66314125061 1275.49976539612 1226.60258674622 1236.66081809998 1280.59726524353 1271.56907653809 1266.08401870728 1298.02639961243 1325.30191040039 1335.96003723145 1298.47433280945 1289.46250534058 1287.10663795471 1313.07705688477 1499.14957618713 1494.34645652771 1552.56066131592 1343.51070594788 1331.59785270691 1354.90224838257 1465.4813117981 1559.85760116577 1870.29058074951 1942.35131454468 1712.92399215698 1535.13374328613 1624.36915779114 2124.65205383301 2100.94720077515 1633.79812812805 1727.25536155701 1828.72822189331 1840.77006340027 1865.60886573792 1609.40173912048 1456.47932815552 1518.48795890808 1819.2372303009 2117.63384628296 2149.8909740448 1995.04183959961 1574.3745098114 1570.80452346802 1873.17413139343 2368.38499832153 2412.47386169434 1941.494972229 1833.86429214478 2017.50510025024 2550.88682937622 2303.71849060059 2302.61893463135 2264.54077529907 2179.38438415527 2309.68703460693 2367.82814788818 2539.45069122314 2762.20386886597 2794.26877975464 2606.2494468689 2681.41746139526 2761.30730819702 2453.18056488037 2337.84992218018 2217.62919616699 2145.30813980103 2103.23549461365 2089.46224403381 2170.47978973389 2142.16176223755 2166.91957473755 2165.98232650757 2182.64577865601 2194.56482315063 2174.02498626709 2154.90032196045 2142.39190673828 2162.62492752075 2201.68222427368 2215.59387207031 2312.69049835205 2413.09725952148 2396.42188262939 2421.99131393433 2485.5707321167 2467.85080337524 2423.7773399353 2355.55045318604 2314.71369171143 2321.00414657593 2273.22791290283 2204.5453414917 2119.57862854004 2071.85404586792 2076.98637771606 2121.46123313904 2054.49911308289 2019.94932365417 2015.23581504822 2007.19091033936 1962.48692321777 1950.33950614929 1953.80093765259 1932.03741836548 1912.78048706055 1927.25881385803 1896.49574279785 1852.79814529419 1884.02582359314 1915.86024475098 1841.67323684692 1911.04341316223 1877.4817237854 1854.64763069153 1813.98695755005 1848.82394218445 1894.17416381836 1963.70631027222 2036.15263175964 1995.11017608643 1996.92598152161 1929.86398124695 2094.13086509705 2213.40460968018 2252.87432861328 2268.54317474365 2298.19311141968 2331.90882873535 2443.8395614624 2593.13884735107 2586.77980804443 2516.91259384155 2334.58551025391 2325.03520584106 2131.22702980042
1403.39338874817 1230.16368103027 1231.80599212646 1369.99049377441 1368.17477989197 1296.77358627319 1295.36152267456 1323.70923614502 1367.39249420166 1423.70960998535 1462.72466278076 1551.04671859741 1458.65935707092 1466.34723091125 1507.92881774902 1531.33654403687 1580.15533447266 1597.54550552368 1570.13219261169 1532.67566299438 1538.84041976929 1530.71715736389 1515.15606880188 1519.49488830566 1549.81531143188 1673.89473152161 1786.36542510986 1807.99064826965 1774.88933563232 1573.52206420898 1508.07329368591 1600.37481498718 1634.73052406311 1673.62808609009 1711.11885452271 1728.01019668579 1735.05419158936 1756.69135093689 1807.54901313782 1810.14853858948 1729.1674041748 1602.39025115967 1536.16553688049 1480.39380645752 1431.18387985229 1416.00904273987 1382.55918693542 1442.91526794434 1479.19719314575 1450.59921646118 1416.92020606995 1473.01710319519 1477.84734725952 1438.93165588379 1387.82275772095 1363.47379493713 1365.37979698181 1339.39420318604 1319.673412323 1357.1855430603 1379.14284515381 1360.69679832458 1336.1026725769 1343.24394798279 1367.56768798828 1401.30129051208 1435.90765762329 1410.61434745789 1413.79064941406 1327.69470596313 1326.30576705933 1322.63027381897 1315.33010673523 1311.52548980713 1380.14394950867 1678.44460487366 1529.22244262695 1550.36985206604 1692.83670043945 1366.9846534729 1353.3443069458 1387.59061431885 1478.11255836487 1732.99988365173 1892.91829490662 2005.87612724304 1886.73819351196 1592.76461982727 1665.87694740295 2065.66378974915 1879.87172698975 1627.12065124512 1770.70921707153 1670.08833885193 1755.55462646484 2155.97372055054 1864.31020355225 1495.38112449646 1508.21074104309 1577.52908706665 1858.97416114807 1947.83901596069 2130.90041542053 1763.67283248901 1554.23338890076 1933.92782592773 2403.57652664185 2258.18573379517 2010.58037567139 1944.34329032898 1870.37595367432 2387.01169967651 2237.51624679565 2099.10356521606 2016.0220489502 2106.97849655151 2178.82404136658 2259.59614944458 2425.68484115601 2611.13563156128 2831.71188354492 2621.38702392578 2659.87535858154 2907.87298202515 2547.54021453857 2345.09312820435 2264.62575531006 2163.67151260376 2060.04112625122 2110.16204452515 2177.37434387207 2193.59255599976 2159.32681274414 2155.00210952759 2158.24046707153 2123.36210250854 2118.08535003662 2122.25184631348 2134.3228263855 2154.41659927368 2214.22352981567 2157.95363998413 2188.53255462646 2215.70526504517 2248.99786376953 2288.67570877075 2334.82930374146 2324.40718841553 2310.55014419556 2276.89463043213 2240.45582199097 2251.59052276611 2254.80905914307 2239.32610321045 2256.7755279541 2163.40630722046 2084.24924087524 2136.92729949951 2177.9723739624 2200.94031524658 2276.86193466187 2300.91847991943 2072.36266136169 2232.50677680969 2196.53973960876 2144.87473678589 2060.47368812561 2006.83391571045 1925.34230613708 1881.85659599304 1895.39474105835 1893.496301651 1923.00053977966 1935.05337905884 1896.57837104797 1822.51092910767 1797.26462745667 1899.12368392944 1990.71309661865 2040.66287231445 2108.72040557861 2205.50904464722 2207.1803150177 2069.3914680481 2024.43672370911 2173.71874427795 2202.83959960938 2197.00752639771 2189.30236816406 2203.07931900024 2289.06218338013 2439.76788711548 2556.04275512695 2581.4115447998 2384.06828689575 2317.60116958618 2275.06721878052
